ply
format ascii 1.0
comment Generated by the ZED SDK.
element vertex 833
property float32 x
property float32 y
property float32 z
property float32 nx
property float32 ny
property float32 nz
property uchar red
property uchar green
property uchar blue
end_header
-300 200 -3148.19 0.360704 0.444609 0.819887 53 53 55
-300 203.247 -3150 0.367808 0.454175 0.811445 53 53 55
-295.589 200 -3150 0.343086 0.440185 0.829776 53 53 54
-150 202.988 -3150 -0.301271 0.644013 0.703195 49 49 50
-157.556 200 -3150 -0.270516 0.629178 0.728667 49 49 50
-150 200 -3147.26 -0.300593 0.638787 0.708234 49 49 50
-100 200 -3101.26 -0.366515 0.215519 0.905107 48 47 50
-300 150 -3133.96 0.519511 0.0986698 0.848748 50 50 51
-262.044 150 -3150 0.374074 0.093983 0.922624 50 50 52
-150 150 -3110.8 -0.467749 0.0822079 0.88003 47 47 50
-197.911 150 -3150 -0.657918 0.121997 0.743142 47 47 50
-300 100 -3136.43 0.5133 -0.175259 0.840123 49 48 50
-267.83 100 -3150 0.379467 -0.167119 0.909987 48 48 50
-150 100 -3115.91 -0.350506 -0.563482 0.748086 45 45 47
-187.926 100 -3150 -0.601362 -0.382024 0.701728 45 45 47
-100 100 -3107.37 -0.240019 -0.51431 0.823332 41 41 43
-302.802 50 -3150 0.829757 -0.204139 0.519453 47 46 48
-300 62.2964 -3150 0.715154 -0.238819 0.656902 47 46 48
-150 80.3676 -3150 -0.220741 -0.826345 0.5181 45 45 47
-100 76.5909 -3150 -0.154399 -0.85536 0.494491 28 28 30
-50 60.9686 -3150 -0.224592 -0.78828 0.572863 36 36 38
-9.88102 50 -3150 -0.281155 -0.629 0.724783 36 36 38
0 50 -3146.14 -0.289511 -0.60481 0.741881 36 36 38
-350 -0 -3100.09 0.789418 -0.337728 0.512601 48 49 46
-319.304 -0 -3150 0.816531 -0.274615 0.507802 45 45 46
0 45.0933 -3150 -0.279712 -0.584199 0.761887 45 45 47
-350 400 -3163.13 0.892121 0.220857 0.394136 58 58 57
-329.895 400 -3200 0.862506 0.230922 0.450287 60 60 59
-317.796 350 -3200 0.88377 0.166803 0.437181 60 60 59
-310.89 300 -3200 0.84328 0.285832 0.455169 57 57 58
0 318.711 -3200 -0.508309 0.62541 0.592017 56 55 58
-23.0212 300 -3200 -0.442048 0.7042 0.555605 56 55 58
0 300 -3180.23 -0.485473 0.666796 0.565419 56 55 58
-300 250 -3176.31 0.651743 0.44387 0.614989 54 55 56
-300 278.007 -3200 0.657882 0.482612 0.578167 54 55 56
-253.858 250 -3200 0.356059 0.505257 0.78609 55 54 56
-150 254.896 -3200 -0.248391 0.785079 0.567409 51 51 52
-187.024 250 -3200 -0.14458 0.604275 0.783549 51 51 52
-150 250 -3193.33 -0.269902 0.76048 0.590613 51 51 52
-100 279.881 -3200 -0.285752 0.871009 0.399612 51 51 53
-50 289.18 -3200 -0.243445 0.857229 0.453754 52 52 54
-250 200 -3167.7 0.163183 0.403104 0.900488 53 53 54
-250 247.282 -3200 0.311579 0.51179 0.800618 53 53 54
-200 200 -3166.05 -0.168823 0.444595 0.879678 51 51 52
-200 246.669 -3200 -0.118729 0.581137 0.805098 51 51 52
-250 150 -3154.84 0.293289 0.0899365 0.951784 50 50 51
-200 150 -3151.85 -0.624847 0.114323 0.772332 48 48 50
-250 100 -3157.4 0.31209 -0.221513 0.923868 48 47 50
-200 100 -3160.93 -0.487421 -0.346829 0.80133 47 46 48
-300 50 -3154.49 0.810934 -0.218394 0.542853 46 47 48
-250 50 -3196.02 0.258818 -0.523805 0.811567 47 47 49
-200 54.4473 -3200 -0.00131258 -0.706963 0.70725 45 46 47
-225.253 50 -3200 0.123175 -0.613107 0.780338 45 46 47
-150 51.9672 -3200 -0.0480097 -0.8713 0.488397 45 45 47
-110.308 50 -3200 -0.0709368 -0.581361 0.810547 29 29 31
-100 50 -3199.1 -0.135953 -0.526858 0.83901 29 29 31
-50 50 -3165.06 -0.268008 -0.747912 0.607288 36 36 38
-300 -0 -3180.01 0.710821 -0.344974 0.612965 45 45 46
-250 43.6727 -3200 0.269264 -0.513204 0.814934 45 45 46
-279.372 -0 -3200 0.630257 -0.422166 0.651577 45 45 46
-100 48.5449 -3200 -0.136568 -0.522201 0.841817 42 42 44
-50 3.93133 -3200 -0.285236 -0.606838 0.741882 44 44 46
-39.1369 -0 -3200 -0.22758 -0.628853 0.743472 45 45 46
0 -0 -3188.02 -0.2277 -0.627811 0.744315 45 45 46
-1609.46 400 -2050 0.982125 0.0201353 0.187151 60 57 55
-1600 400 -2004.07 0.976053 -0.083125 -0.201023 60 57 55
-1600 390.161 -2000 0.975444 -0.0880592 -0.201878 60 57 55
-1604.29 350 -2000 0.992809 -0.0683134 -0.0983012 60 57 55
-1606.94 350 -2050 0.951968 0.0610198 0.300057 60 57 55
-1609.55 300 -2000 0.994842 0.0462928 0.0902568 57 55 54
-1602.58 300 -2050 0.892149 0.109879 0.438175 57 55 54
-1604.39 250 -2000 0.985284 0.0916423 0.14428 55 54 51
-1600 250 -2029.92 0.985356 0.0910635 0.144157 55 54 51
-1600 280.054 -2050 0.950751 0.11888 0.286252 55 54 51
-1600.17 200 -2000 0.983576 0.16022 0.0831188 50 48 46
-1600 200 -2001.98 0.984539 0.154156 0.0831783 50 48 46
-1600 198.985 -2000 0.983296 0.161949 0.0830732 40 38 36
-1600 350 -2065.67 0.911157 0.0758446 0.405019 44 41 39
-1600 400 -2074.52 0.92914 0.0505567 0.366256 44 41 39
-1600 300 -2054.9 0.879829 0.109644 0.462472 44 41 40
-1599.1 400 -2000 0.975039 0.0556584 -0.214943 45 43 40
-1600 400 -2004.07 0.975039 0.0556584 -0.214943 45 43 40
-1600 415.711 -2000 0.975039 0.0556584 -0.214943 45 43 40
-1579.18 800 -2100 0.801394 0.0952516 0.590504 58 54 51
-1600 800 -2060.41 0.871429 0.0836714 0.483333 58 54 51
-1573.24 750 -2100 0.845801 -0.0278588 0.53277 58 54 51
-1600 750 -2054.37 0.875503 -0.0167462 0.482922 58 54 51
-1581.71 700 -2100 0.886253 -0.0904664 0.454281 57 53 52
-1600 700 -2059.22 0.911729 -0.039703 0.408869 57 53 52
-1550 750 -2140.81 0.61804 -0.0259183 0.785719 78 74 68
-1550 800 -2129.76 0.652962 -0.107372 0.749742 78 74 68
-1510.03 800 -2150 0.682383 -0.365926 0.632812 108 97 76
-1536.85 750 -2150 0.565145 -0.00878534 0.824945 108 97 76
-1520.38 700 -2150 0.681556 -0.0280428 0.731229 103 92 72
-1550 700 -2134.49 0.460959 0.111205 0.880426 103 92 72
-1500 450 -2125.74 0.954452 0.0989916 0.281466 191 180 142
-1493.21 450 -2150 0.960286 0.103496 0.259112 191 180 142
-1500 487.707 -2150 0.862264 0.297406 0.409939 191 180 142
-1491.07 400 -2150 0.941072 -0.00334916 0.33819 193 182 145
-1500 400 -2130.61 0.907448 -0.0407828 0.41818 193 182 145
-1500 750 -2174.2 0.780117 -0.0431762 0.624142 154 141 105
-1500 800 -2164.29 0.80901 -0.243447 0.535011 154 141 105
-1488.43 800 -2200 0.874671 0.0431122 0.482795 213 200 155
-1485.96 750 -2200 0.814413 -0.0134397 0.580131 213 200 155
-1500 700 -2176.9 0.833126 -0.0952932 0.544811 160 148 111
-1487.04 700 -2200 0.835338 -0.0714657 0.545072 215 203 159
-1536.54 650 -2150 0.725748 -0.198562 0.658683 165 152 115
-1500 650 -2188.63 0.866815 -0.088585 0.490698 165 152 115
-1494.48 650 -2200 0.868095 -0.0684288 0.491659 213 202 158
-1550 602.417 -2150 0.652797 -0.073941 0.753916 167 154 120
-1550 600 -2150.22 0.496139 0.162423 0.852915 167 154 120
-1500 600 -2195.73 0.800508 0.0268123 0.598722 167 154 120
-1496.89 600 -2200 0.796293 0.0274685 0.604287 212 202 158
-1550 599.207 -2150 0.422359 0.242597 0.873361 169 157 123
-1521.74 550 -2150 0.769856 0.338029 0.541348 169 157 123
-1500 550 -2181 0.831367 0.183732 0.524473 169 157 123
-1488.71 550 -2200 0.806307 0.10235 0.582575 210 200 157
-1505.23 500 -2150 0.81659 0.322614 0.478646 176 165 128
-1500 500 -2158.97 0.841633 0.293795 0.453143 176 165 128
-1483.37 500 -2200 0.841501 0.0848233 0.533555 209 200 157
-1482.87 450 -2200 0.864981 0.0337635 0.500668 208 199 157
-1479.99 400 -2200 0.862945 0.0326617 0.504241 210 200 161
-1450 750 -2241.88 0.362109 -0.0368194 0.931408 224 212 165
-1450 800 -2238.59 0.356362 -0.0421055 0.933399 224 212 165
-1400 750 -2238.11 0.171978 -0.0613016 0.983192 196 181 136
-1400 800 -2234.68 0.204404 -0.0338486 0.978301 196 181 136
-1368.28 800 -2250 0.43473 0.0222619 0.900286 240 229 184
-1365.72 750 -2250 0.345683 -0.056764 0.936633 240 229 184
-1450 700 -2241.67 0.349168 0.00282198 0.937056 221 211 165
-1400 700 -2239.95 0.232253 0.0475585 0.971492 199 184 140
-1377.72 700 -2250 0.398093 0.0877093 0.913143 240 230 185
-1450 650 -2240.37 0.279034 0.0563262 0.958628 217 208 161
-1400 650 -2237.87 0.0704964 0.0815788 0.994171 201 187 143
-1350 656.333 -2250 0.536107 0.449305 0.714642 234 225 181
-1350 650 -2245.88 0.455401 0.358205 0.815046 234 225 181
-1450 600 -2235.67 0.240459 0.0615621 0.968705 217 208 162
-1400 600 -2230.05 0.081617 0.123929 0.988929 196 184 139
-1350 600 -2243.94 0.237928 0.109714 0.965066 232 222 180
-1450 550 -2237.71 0.254982 0.0131415 0.966856 216 206 162
-1400 550 -2224.85 0.00760358 0.0601185 0.998162 198 186 141
-1350 550 -2237.29 0.246988 0.103573 0.963468 224 216 174
-1450 500 -2234.16 0.290966 0.0690693 0.954237 215 206 162
-1400 500 -2222.97 -0.0244411 0.09986 0.994701 206 194 150
-1350 500 -2232.49 0.19973 0.127504 0.97152 219 210 170
-1450 450 -2230.79 0.271725 0.0472836 0.961213 216 207 162
-1400 450 -2215.95 -0.0784502 0.122796 0.989326 204 193 150
-1350 450 -2222.6 0.143377 0.182729 0.972653 208 201 165
-1450 400 -2231.63 0.280942 -0.0160666 0.95959 215 207 163
-1400 400 -2211.15 -0.148455 0.070779 0.986383 215 203 159
-1350 400 -2212.22 0.074973 0.148504 0.986066 205 197 160
-619.583 1600 -2900 -0.349145 -0.260587 0.900107 105 96 75
-600 1571.68 -2900 0.0639219 -0.298721 0.952197 105 96 75
-600 1600 -2891.41 0.143402 -0.287308 0.947043 105 96 75
-586.409 1600 -2900 0.494481 -0.237313 0.836164 76 70 61
-600 1550 -2907.36 0.0232456 -0.249177 0.968179 101 93 75
-650 1600 -2908.05 -0.191783 -0.178523 0.965064 101 93 75
-650 1550 -2912.21 -0.0982609 -0.0900226 0.991081 101 93 75
-550 1600 -2918 0.376874 -0.0397297 0.925412 72 67 58
-550 1550 -2916.94 0.292766 -0.00281673 0.95618 72 67 58
-500 1550 -2937.54 0.811173 0.00297923 0.584798 75 74 68
-500 1600 -2944.49 0.812362 0.0602215 0.580036 75 74 68
-496.451 1600 -2950 0.836846 0.051764 0.544985 67 65 62
-493.359 1550 -2950 0.878009 -0.00161538 0.478641 67 65 62
-700 1550 -2928.72 -0.786867 0.0663632 0.613544 173 172 169
-708.939 1550 -2950 -0.828012 0.0751584 0.555651 173 172 169
-700 1500 -2921.76 -0.702237 0.0473423 0.710368 173 172 169
-714.021 1500 -2950 -0.813552 0.0531893 0.579054 173 172 169
-650 1500 -2911.48 0.0589159 0.0234273 0.997988 204 197 174
-600 1500 -2928.08 -0.00345198 -0.201321 0.979519 101 91 74
-550 1500 -2917.26 0.147417 -0.0766157 0.986103 81 74 64
-500 1500 -2942.85 0.854559 0.00937668 0.51927 76 75 69
-496.378 1500 -2950 0.886721 0.0094607 0.462209 66 65 62
-700 1450 -2924.21 -0.67722 -0.0669737 0.732726 171 172 168
-718.127 1450 -2950 -0.743853 -0.0138684 0.668199 171 172 168
-650 1450 -2909.49 0.104688 0.00815371 0.994472 192 187 160
-600 1450 -2934.66 0.0468344 -0.117599 0.991956 101 91 74
-550 1450 -2921.27 0.0127305 -0.0554669 0.998379 88 79 65
-500 1450 -2937.22 0.788935 0.0576793 0.611764 77 74 69
-492.902 1450 -2950 0.86484 0.0605056 0.498389 66 66 62
-700 1400 -2938.43 -0.689662 0.00808373 0.724086 171 172 167
-711.061 1400 -2950 -0.683867 0.0191863 0.729355 171 172 167
-650 1400 -2907.38 0.0702074 0.00779442 0.997502 177 173 153
-600 1400 -2943.5 0.0390398 -0.110435 0.993116 101 90 75
-550 1400 -2923.53 -0.0887099 -0.00235783 0.996055 89 80 67
-500 1400 -2933.76 0.692641 0.0755298 0.717317 82 81 75
-489.126 1400 -2950 0.832816 0.0643027 0.549803 67 66 62
-700 1350 -2926.57 -0.596352 0.135619 0.791184 178 179 176
-720.918 1350 -2950 -0.593269 0.0872897 0.800258 178 179 176
-650 1350 -2902.68 0.0813409 -0.084101 0.993132 169 167 153
-600 1350 -2949.74 -0.232642 -0.138932 0.962588 99 90 75
-550 1350 -2922.16 -0.296939 -0.0123725 0.954816 90 80 68
-500 1350 -2924 0.677004 0.0722264 0.732427 86 84 78
-484.02 1350 -2950 0.861998 0.0315299 0.50593 67 67 63
-700 1300 -2914.65 -0.535234 0.162243 0.828976 182 186 184
-723.119 1300 -2950 -0.757487 -0.0417542 0.651513 182 186 184
-650 1300 -2906.92 0.353281 -0.0118454 0.935442 175 176 163
-600 1348.25 -2950 -0.257174 -0.140602 0.956082 100 92 76
-606.889 1300 -2950 0.6306 -0.0765353 0.772325 100 92 76
-591.02 1300 -2950 -0.511259 -0.0857463 0.855139 89 81 68
-550 1300 -2923.3 -0.302393 -0.0557591 0.951551 89 81 68
-500 1300 -2921.33 0.597624 0.025772 0.801362 94 92 85
-484.465 1300 -2950 0.879809 0.0386156 0.473755 68 67 63
-605.295 1250 -2950 0.462187 0.063095 0.884535 99 94 78
-650 1250 -2912.89 0.583605 -0.0838916 0.807693 99 94 78
-550 1250 -2928.15 -0.298308 -0.032477 0.953917 94 85 73
-593.266 1250 -2950 -0.369686 0.0528748 0.927651 94 85 73
-500 1250 -2921.84 0.509694 -0.00642117 0.860332 100 99 92
-480.59 1250 -2950 0.820165 0.0642137 0.568513 69 67 63
-600 1218.37 -2950 0.329423 0.0864519 0.940216 101 95 77
-600 1200 -2948.51 0.200231 0.020724 0.979529 101 95 77
-650 1200 -2925.53 0.406929 -0.223927 0.885588 101 95 77
-550 1200 -2930.28 -0.249583 -0.0412216 0.967476 103 93 75
-500 1200 -2922.21 0.459008 -0.0146531 0.888311 107 106 99
-477.855 1200 -2950 0.788919 0.0211453 0.614133 70 68 64
-750 1600 -2995.08 -0.797174 0.0585412 0.600904 171 173 163
-753.59 1600 -3000 -0.819036 0.0609485 0.570496 171 173 163
-750 1550 -2990.21 -0.748376 0.0857041 0.657714 171 173 163
-758.32 1550 -3000 -0.804334 0.0806551 0.588678 171 173 163
-702.584 1600 -2950 -0.693115 0.0812677 0.716231 194 192 190
-460.618 1600 -3000 0.873838 -0.0841799 0.478875 53 52 49
-466.362 1550 -3000 0.851905 -0.0182458 0.523379 53 52 49
-750 1500 -2982.69 -0.774216 0.0613472 0.629941 172 173 164
-762.271 1500 -3000 -0.868553 0.042926 0.493734 172 173 164
-462.974 1500 -3000 0.82141 0.0641469 0.566719 55 53 50
-750 1450 -2978.83 -0.799382 0.0366258 0.599706 172 173 163
-762.305 1450 -3000 -0.904068 0.0153418 0.427113 172 173 163
-459.298 1450 -3000 0.842241 0.042894 0.537392 55 54 51
-750 1400 -2974.87 -0.777006 0.0211782 0.629137 170 173 163
-763.54 1400 -3000 -0.917627 0.0201371 0.396931 170 173 163
-457.048 1400 -3000 0.839013 0.0115467 0.54399 56 54 52
-750 1350 -2972.19 -0.774485 -0.00540701 0.632569 171 172 165
-764.296 1350 -3000 -0.923704 -0.0152042 0.382805 171 172 165
-458.8 1350 -3000 0.879778 -0.0211523 0.474914 56 56 52
-750 1300 -2976.91 -0.816 -0.101175 0.569128 170 174 168
-761.964 1300 -3000 -0.913096 -0.0910115 0.397458 170 174 168
-600 1300 -2955.31 0.121258 -0.0361847 0.991961 87 79 65
-458.509 1300 -3000 0.831313 0.187369 0.523269 59 60 56
-750 1250 -2992.92 -0.798078 -0.0991321 0.594344 177 178 174
-755.181 1250 -3000 -0.825868 -0.0905819 0.55654 177 178 174
-711.866 1250 -2950 -0.755534 -0.103287 0.646916 201 204 207
-600 1250 -2952.6 0.0871501 0.0646385 0.994096 89 83 64
-450 1250 -2987.41 0.782824 0.179087 0.595914 60 60 56
-450 1275.96 -3000 0.781665 0.283955 0.55531 60 60 56
-440.552 1250 -3000 0.796686 0.175886 0.578236 61 61 61
-750 1200 -2999.33 -0.774397 -0.0715338 0.628643 181 183 182
-750.547 1200 -3000 -0.777175 -0.0717967 0.625175 181 183 182
-711.363 1200 -2950 -0.787212 -0.00791729 0.616631 229 233 233
-450 1200 -2985.4 0.830661 0.0223645 0.556329 67 67 62
-440.827 1200 -3000 0.847564 0.0100581 0.530598 62 62 61
-774.142 1600 -3050 -0.932511 0.0470766 0.358059 164 166 157
-775.997 1550 -3050 -0.940409 0.0299064 0.338729 164 166 157
-450 1550 -3025.21 0.789445 0.0098948 0.613741 52 51 48
-450 1600 -3020.2 0.827775 -0.0837848 0.55477 52 51 48
-422.325 1600 -3050 0.629284 -0.0592984 0.77491 60 60 60
-427.036 1550 -3050 0.726171 -0.00034072 0.687514 60 60 60
-776.538 1500 -3050 -0.942713 0.00802794 0.333508 164 166 159
-450 1500 -3018.43 0.792637 0.0550427 0.607204 52 50 47
-419.396 1500 -3050 0.774257 -0.00529092 0.632849 60 60 60
-775.974 1450 -3050 -0.926668 0.0163794 0.375523 164 165 156
-450 1450 -3014.86 0.83408 0.0464198 0.549687 52 51 48
-424.843 1450 -3050 0.780089 0.0480153 0.623824 61 61 60
-776.608 1400 -3050 -0.926386 -0.000353698 0.376575 163 164 157
-450 1400 -3010.67 0.826376 -0.000496308 0.563119 51 51 47
-417.133 1400 -3050 0.838248 -0.0650233 0.541398 59 60 57
-777.322 1350 -3050 -0.940185 -0.00938819 0.340534 163 164 159
-450 1350 -3016.13 0.861985 -0.0163466 0.506669 52 51 48
-427.574 1350 -3050 0.824338 -0.0129409 0.56595 59 59 57
-775.367 1300 -3050 -0.930783 -0.0373828 0.363657 164 166 162
-450 1300 -3013.49 0.822862 0.19026 0.535443 52 52 48
-423.31 1300 -3050 0.80456 0.144268 0.576081 59 59 58
-775.122 1250 -3050 -0.91415 -0.0322851 0.404089 167 169 166
-410.6 1250 -3050 0.846702 0.0657053 0.527994 61 61 59
-772.204 1200 -3050 -0.907325 -0.047742 0.417711 170 175 171
-412.895 1200 -3050 0.843888 -0.0300201 0.535679 61 61 59
-793.539 1600 -3100 -0.932287 0.0331223 0.360199 161 162 155
-795.247 1550 -3100 -0.92707 0.036982 0.373059 161 162 155
-400 1550 -3080.07 0.758974 -0.0530294 0.648958 61 61 60
-400 1600 -3064.93 0.610465 -0.0952652 0.786293 61 61 60
-799.052 1500 -3100 -0.81516 0.105884 0.569476 158 159 153
-400 1500 -3078.34 0.814274 -0.020208 0.580128 62 62 61
-800 1492.74 -3100 -0.816514 0.106555 0.567408 158 159 153
-800 1450 -3091.57 -0.863725 0.0593363 0.500458 158 159 153
-400 1450 -3078.79 0.78994 0.0234481 0.612736 61 61 61
-800 1400 -3089.83 -0.86253 -0.0373265 0.504628 157 159 156
-400 1400 -3086.1 0.882274 -0.089224 0.462204 60 60 61
-800 1350 -3098.81 -0.897004 -0.0224517 0.441452 161 161 159
-400 1350 -3087.8 0.805985 0.0259373 0.591368 61 62 61
-800 1300 -3099.8 -0.896757 -0.0173274 0.442183 162 163 163
-400 1300 -3081.06 0.79825 0.132458 0.587582 61 61 61
-800 1294.71 -3100 -0.896181 -0.0173064 0.443351 166 167 166
-799.004 1250 -3100 -0.897717 -0.025699 0.439823 166 167 166
-400 1250 -3067 0.84579 0.0524802 0.530929 60 60 58
-797.424 1200 -3100 -0.892494 -0.0282031 0.450178 170 173 172
-400 1200 -3069.11 0.828643 -0.0235892 0.55928 60 60 58
-800 1500 -3101.35 -0.814252 0.10626 0.570704 172 173 168
-1161.82 1650 -2850 0.669833 -0.598551 0.439387 209 209 212
-1200 1607.28 -2850 0.349628 -0.904159 0.245471 209 209 212
-1150 1650 -2868.02 0.660424 -0.563559 0.496227 209 209 212
-1150 1610.72 -2900 0.134077 -0.979481 0.150466 209 209 212
-1200 1616.05 -2900 0.0337523 -0.99708 0.0684959 209 209 212
-1200 1600 -2933.43 0.264368 -0.869439 0.417356 187 189 190
-1173.84 1600 -2950 0.3506 -0.822705 0.447478 187 189 190
-1150 1611.73 -2950 -0.130202 -0.848266 0.513315 187 189 190
-1150 1600 -2966.15 -0.279227 -0.776838 0.564406 179 179 179
-1117.37 1600 -2950 -0.279227 -0.776838 0.564406 179 179 179
-1196.65 1700 -3050 -0.94342 0.298476 0.144466 191 190 192
-1200 1694.03 -3050 -0.834337 0.467502 0.292102 191 190 192
-1200 1650 -3021.72 -0.675712 0.396668 0.621343 191 190 192
-1179.98 1650 -3000 -0.911208 -0.400469 -0.0965644 191 190 192
-1200 1662.75 -3000 -0.447985 -0.702351 -0.553184 191 190 192
-1200 1700 -3047.15 -0.46707 -0.693837 -0.54812 191 190 192
-1022.17 1600 -3000 0.752169 0.397794 0.525358 182 183 181
-1000 1600 -3031.39 0.599642 0.461993 0.653446 182 183 181
-1000 1626.32 -3050 0.595743 0.473769 0.648562 182 183 181
-1014.97 1650 -3050 0.699344 0.38556 0.601882 182 183 181
-1047.95 1650 -3000 0.766772 0.395384 0.505699 182 183 181
-969.129 1600 -3050 0.432961 0.517224 0.738258 188 191 190
-1200 1700 -3062.53 -0.849615 0.476063 0.226975 198 197 189
-1000 1650 -3067.03 0.646379 0.398761 0.650526 181 184 183
-1000 1700 -3086.39 0.680108 0.287201 0.674513 181 184 183
-1037.93 1700 -3050 0.659732 0.302929 0.687741 181 184 183
-950 1600 -3060.88 0.443182 0.491437 0.74972 173 175 172
-950 1650 -3091.54 0.403736 0.365908 0.838516 173 175 172
-928.206 1650 -3100 0.40478 0.32846 0.853386 198 199 194
-900 1608.47 -3100 0.516038 0.322889 0.793377 198 199 194
-900 1600 -3096.48 0.533201 0.326141 0.780595 198 199 194
-894.934 1600 -3100 0.537428 0.321482 0.779628 203 204 202
-850 2000 -3148.49 -0.552728 0.00686311 0.833333 186 192 192
-852.302 2000 -3150 -0.553847 0.00653523 0.832593 186 192 192
-850 1950 -3148.09 -0.577105 0.0118378 0.816584 186 192 192
-852.714 1950 -3150 -0.578349 0.0118998 0.815702 186 192 192
-800 1950 -3107.89 -0.622833 0.00452865 0.782342 147 148 146
-800 2000 -3109.57 -0.613964 0.0266018 0.788886 147 148 146
-850 1900 -3146.91 -0.669779 0.00977309 0.742496 187 192 189
-853.385 1900 -3150 -0.676679 0.0188225 0.736037 187 192 189
-800 1900 -3108.5 -0.620012 0.00128319 0.784592 151 153 150
-900 1780.32 -3150 -0.337712 0.254334 0.906237 250 251 250
-900 1750 -3136.45 -0.300476 0.186984 0.935281 250 251 250
-885.182 1800 -3150 -0.449848 0.293508 0.843498 250 251 250
-850 1800 -3131.72 -0.276119 0.187206 0.942715 250 251 250
-850 1750 -3123.17 -0.18104 0.0821643 0.980038 250 251 250
-800 1750 -3119.37 -0.122538 0.0831167 0.988977 168 171 165
-800 1800 -3118.28 -0.259479 -0.0210076 0.96552 168 171 165
-850 1700 -3124.87 -0.19468 -0.0880407 0.976908 253 253 253
-900 1700 -3130.07 0.108507 0.137283 0.984571 253 253 253
-800 1700 -3114.69 -0.168715 -0.00340249 0.985659 176 178 170
-950 1669.83 -3100 0.406983 0.3968 0.822748 191 192 190
-950 1700 -3114.55 0.426416 0.376667 0.822369 191 192 190
-975.054 1700 -3100 0.463537 0.384915 0.798106 191 192 190
-900 1650 -3115.48 0.425027 0.303045 0.852946 249 251 249
-850 1650 -3136.9 -0.0461582 0.0238833 0.998649 252 253 252
-800 1650 -3116.58 -0.33003 -0.00648469 0.943948 178 180 172
-850 1600 -3128.18 0.0762807 0.213347 0.973994 195 196 187
-800 1600 -3110.16 -0.355517 0.13871 0.92432 180 180 171
-956.304 2000 -3200 -0.738319 -0.356263 0.572679 199 205 208
-950 1986.94 -3200 -0.669191 -0.393678 0.630239 199 205 208
-950 2000 -3191.87 -0.697528 -0.373683 0.611405 199 205 208
-904.005 1950 -3200 -0.521712 -0.649691 0.552918 218 224 227
-900 1950 -3196.22 -0.545102 -0.546713 0.635586 218 224 227
-900 2000 -3177.09 -0.366451 -0.332517 0.868992 218 224 227
-900 1900 -3197.66 -0.70546 0.108169 0.700447 181 184 180
-900 1850 -3180.56 -0.634715 0.251985 0.730507 192 196 189
-862.412 1850 -3150 -0.603448 0.204067 0.770848 192 196 189
-900 1800 -3157.9 -0.456639 0.309138 0.834215 199 203 198
114.721 1200 -3250 -0.921482 -0.00819465 0.388334 73 76 79
135.523 1150 -3200 -0.923981 -0.0102991 0.382299 73 76 79
134.529 1200 -3200 -0.929546 -0.0184675 0.368244 73 76 79
114.509 1150 -3250 -0.925857 -0.0198294 0.377354 73 76 79
136.198 1100 -3200 -0.930398 -0.0033632 0.366535 74 76 79
116.974 1100 -3250 -0.930047 0.00289981 0.367429 74 76 79
135.075 1050 -3200 -0.926809 0.024916 0.374706 74 76 79
114.49 1050 -3250 -0.922201 0.0176172 0.386309 74 76 79
134.145 1000 -3200 -0.932712 -0.00342762 0.360606 75 77 79
115.268 1000 -3250 -0.92702 -0.00774632 0.374932 75 77 79
134.643 950 -3200 -0.932869 0.0165506 0.359836 74 76 80
115.207 950 -3250 -0.927049 0.0139572 0.37468 74 76 80
132.628 900 -3200 -0.933308 0.0148113 0.358771 75 77 80
113.487 900 -3250 -0.93163 0.013331 0.363164 75 77 80
132.93 850 -3200 -0.934015 0.000948298 0.357232 75 77 79
113.813 850 -3250 -0.930935 0.00706946 0.365116 75 77 79
132.516 800 -3200 -0.931337 0.0154584 0.36383 76 78 80
112.501 800 -3250 -0.92983 0.0244029 0.367179 76 78 80
100 1200 -3283.34 -0.860669 -0.021253 0.508721 66 67 69
88.626 1200 -3300 -0.827573 -0.0276642 0.560676 66 67 69
100 1150 -3285.43 -0.869819 -0.0523528 0.490585 66 67 69
90.768 1150 -3300 -0.838995 -0.0611714 0.540689 66 67 69
100 1100 -3293.65 -0.845839 0.0130064 0.533279 66 68 69
95.723 1100 -3300 -0.827441 0.0143656 0.561369 66 68 69
100 1050 -3283.54 -0.868693 0.0318821 0.494324 67 68 69
89.1272 1050 -3300 -0.833179 0.0356156 0.551855 67 68 69
100 1000 -3286.15 -0.859577 -0.0110814 0.510886 68 69 71
90.6571 1000 -3300 -0.83178 -0.0126173 0.554962 68 69 71
100 950 -3286.05 -0.868293 0.00701837 0.496002 67 68 69
91.0912 950 -3300 -0.84282 0.00408925 0.538181 67 68 69
100 900 -3284.2 -0.884727 0.00453977 0.466087 67 68 70
90.6171 900 -3300 -0.857997 -0.000877792 0.513653 67 68 70
100 850 -3284.83 -0.883988 0.0106085 0.467389 66 68 70
90.9536 850 -3300 -0.860081 0.00953651 0.510068 66 68 70
100 800 -3281.94 -0.894766 0.0222115 0.445983 66 68 69
89.7937 800 -3300 -0.870532 0.0156941 0.491862 66 68 69
54.6217 1200 -3350 -0.828163 -0.0338428 0.559464 66 68 70
56.742 1150 -3350 -0.823754 -0.031232 0.566086 66 68 70
58.5212 1100 -3350 -0.814553 -0.011037 0.579984 66 68 69
57.4904 1050 -3350 -0.85312 0.0100217 0.521618 66 68 68
57.9619 1000 -3350 -0.830491 -0.0172115 0.556766 67 68 70
58.8872 950 -3350 -0.838904 -0.0257213 0.543672 67 68 69
60.5629 900 -3350 -0.857879 -0.0261922 0.513184 67 68 70
61.7341 850 -3350 -0.867165 -0.0195638 0.497636 66 68 69
62.7872 800 -3350 -0.876346 -0.0184571 0.481328 66 67 68
0 1153.04 -3400 -0.695115 0.0895682 0.713297 61 61 65
0 1150 -3399.61 -0.71249 -0.165957 0.681774 61 61 65
6.05039 1200 -3400 -0.647325 0.0834113 0.757636 61 61 65
50 1200 -3356.85 -0.811818 -0.0292228 0.583179 61 61 65
50 1150 -3359.86 -0.797804 -0.0306658 0.602137 61 61 65
14.6248 1100 -3400 -0.730352 -0.0637855 0.680086 61 62 65
50 1100 -3361.88 -0.791605 -0.0261045 0.610475 61 62 65
0 1148.75 -3400 -0.712893 -0.206971 0.670035 61 62 65
50 1050 -3362.44 -0.825202 0.0139901 0.564664 61 62 65
8.92487 1050 -3400 -0.673765 0.0591743 0.736573 61 62 65
50 1000 -3361.68 -0.812119 -0.00969227 0.583411 62 62 65
5.78499 1000 -3400 -0.664758 -0.00732475 0.747023 62 62 65
50 950 -3363.55 -0.817128 -0.0340343 0.57545 62 62 65
10.1121 950 -3400 -0.665644 -0.0516128 0.744483 62 62 65
50 900 -3367.58 -0.807111 -0.0352143 0.589349 62 62 65
13.8364 900 -3400 -0.658464 -0.0421635 0.75143 62 62 65
50 850 -3370.33 -0.804587 -0.0300424 0.593075 62 62 65
16.3794 850 -3400 -0.6588 -0.0353079 0.751489 62 62 65
50 800 -3373.1 -0.799307 -0.0275108 0.600293 62 62 66
19.0358 800 -3400 -0.658511 -0.0349853 0.751757 62 62 66
0 1200 -3405.08 -0.640937 0.0825872 0.763138 61 61 65
0 1100 -3416.14 -0.739933 -0.0533298 0.670563 61 62 65
0 1050 -3408.2 -0.678234 0.0621802 0.732211 62 62 65
0 1000 -3405.16 -0.665503 -0.00801768 0.746352 61 62 65
0 950 -3409.04 -0.665541 -0.0510962 0.74461 62 62 65
0 900 -3412.03 -0.656108 -0.0415419 0.753523 62 62 66
0 850 -3414.33 -0.657848 -0.0351098 0.752332 62 62 66
0 800 -3416.76 -0.659987 -0.03536 0.750445 62 62 66
-1500 -39.4083 -2050 0.915411 0.263272 -0.304483 54 51 49
-1509.26 -0 -2050 0.905133 0.211289 -0.368905 54 51 49
-1500 -0 -2031.17 0.901783 0.186306 -0.389972 54 51 49
-1489.27 -0 -2000 0.932034 0.166615 -0.321794 80 76 70
-1496.76 -50 -2050 0.904898 0.309872 -0.291784 80 76 70
-1480.15 -50 -2000 0.922444 0.234805 -0.306535 80 76 70
-1463.55 -100 -2000 0.836287 0.546839 -0.0398897 73 69 65
-1466.73 -100 -2050 0.759109 0.64925 0.0472056 73 69 65
-1450 -117.305 -2050 0.692917 0.717097 0.0750923 66 61 59
-1450 -119.675 -2000 0.769678 0.637716 0.0302303 66 61 59
-1414.27 -150 -2000 0.618994 0.782334 0.0692832 76 71 62
-1405.63 -150 -2050 0.613407 0.778837 0.130941 76 71 62
-1500 -50 -2060.22 0.909756 0.315898 -0.269358 71 67 62
-1507.69 -50 -2100 0.9245 0.374864 -0.0691086 71 67 62
-1519.28 -0 -2100 0.940282 0.218023 -0.261413 71 67 62
-1500 -67.9904 -2100 0.848941 0.528433 -0.00759684 66 62 59
-1458.67 -100 -2100 0.596593 0.757011 0.266481 82 76 65
-1450 -106.377 -2100 0.605405 0.738902 0.295818 73 68 60
-1400 -150 -2078.96 0.818136 0.556703 0.144001 83 77 66
-1400 -144.558 -2100 0.828522 0.532477 0.17326 83 77 66
-1396.57 -150 -2100 0.841231 0.513259 0.169987 91 83 71
-1537.4 -0 -2150 0.810714 0.442796 0.382981 93 84 70
-1501.54 -50 -2150 0.738739 0.583442 0.337431 93 84 70
-1500 -51.3985 -2150 0.745517 0.0473901 0.664799 84 78 69
-1450 -100 -2114.85 0.601306 0.702411 0.380855 100 94 79
-1450 -70.3786 -2150 0.407399 0.645023 0.646507 100 94 79
-1412.52 -100 -2150 0.609293 0.417051 0.674411 110 102 83
-1400 -120.326 -2150 0.669683 0.435172 0.601789 89 82 71
-1382.74 -150 -2150 0.753704 0.363335 0.547648 95 86 72
-1387.26 -200 -2100 0.908802 0.25104 0.333254 75 69 59
-1363.6 -200 -2150 0.717232 0.218774 0.661601 75 69 59
-1500 -50 -2151.77 0.575622 0.632614 0.51813 117 107 83
-1500 -0 -2175.33 0.36703 0.370926 0.853055 117 107 83
-1450 -50 -2166.24 0.190665 0.191401 0.962815 135 122 92
-1450 -0 -2182.54 0.133923 0.283977 0.949432 135 122 92
-1400 -50 -2175.75 0.18892 0.232797 0.953999 146 134 97
-1400 -0 -2187.06 0.0867246 0.174557 0.98082 146 134 97
-1350 -50 -2184.82 0.772534 0.0621461 0.631925 144 128 92
-1350 -0 -2186.88 0.730289 0.00674263 0.683105 144 128 92
-1342.19 -0 -2200 0.903689 -0.00709978 0.42813 144 127 95
-1342.58 -50 -2200 0.935111 0.0328175 0.352832 144 127 95
-1400 -100 -2161.3 0.5626 0.397805 0.724729 117 107 84
-1350 -100 -2180.43 0.74142 0.0943242 0.664379 114 102 77
-1339.04 -100 -2200 0.93913 0.071538 0.33603 151 135 103
-1350 -150 -2174.58 0.730563 0.154705 0.66509 93 86 70
-1333.47 -150 -2200 0.947068 0.10408 0.303692 133 120 99
-1350 -200 -2162.88 0.72838 0.156119 0.66715 76 70 60
-1326.05 -200 -2200 0.967928 0.119287 0.221102 114 102 88
-1335.84 -0 -2250 0.997594 -0.06926 -0.00297159 177 163 130
-1340.33 -50 -2250 0.991232 -0.10821 -0.0758276 177 163 130
-1341.78 -100 -2250 0.99653 0.0130597 -0.0822085 168 154 121
-1341.77 -150 -2250 0.980803 0.044584 -0.189837 149 136 109
-1339.88 -200 -2250 0.963201 0.0365245 -0.266289 128 117 99
-1359.71 -50 -2300 0.885356 -0.320333 -0.336945 178 160 126
-1350 -23.1593 -2300 0.887871 -0.343776 -0.305782 178 160 126
-1350 -50 -2280.09 0.870387 -0.307399 -0.384619 178 160 126
-1340.41 -0 -2300 0.916082 -0.325505 -0.234179 163 154 133
-1367.6 -50 -2350 0.924051 -0.30608 -0.229009 174 160 130
-1350 -0.274117 -2350 0.803947 -0.591865 -0.0580142 174 160 130
-1349.8 -0 -2350 0.803838 -0.592022 -0.0579286 173 174 177
-1352.59 -0 -2400 0.885904 -0.433507 -0.165063 156 150 138
-1350 -0 -2353.58 0.804557 -0.592146 -0.045302 156 150 138
-1386.67 -50 -2400 0.721299 -0.385852 -0.575192 156 150 138
-1410.26 -100 -2400 0.79977 -0.148929 -0.581539 171 155 121
-1400 -67.2563 -2400 0.568613 -0.326017 -0.755243 171 155 121
-1400 -100 -2385.87 0.788286 -0.161234 -0.593808 171 155 121
-1373.6 -100 -2350 0.835876 -0.127755 -0.533844 142 136 124
-1400 -150 -2385.29 0.804789 -0.00687524 -0.593522 152 140 110
-1410.97 -150 -2400 0.799992 -0.0076565 -0.599962 152 140 110
-1374.75 -150 -2350 0.810179 -0.00578697 -0.586154 134 129 119
-1400 -200 -2385.11 0.784976 0.0487923 -0.617602 132 119 103
-1412.06 -200 -2400 0.775772 0.045283 -0.629387 132 119 103
-1373.57 -200 -2350 0.793473 0.0664543 -0.604967 124 118 113
-1400 -250 -2393.74 0.760018 0.103274 -0.641644 111 103 90
-1405.37 -250 -2400 0.755217 0.100994 -0.647648 111 103 90
-1365.28 -250 -2350 0.776722 0.128707 -0.616553 109 104 103
800 1582.14 -2400 -0.263519 0.151525 0.952679 95 97 107
781.521 1550 -2400 -0.265804 -0.0771001 0.960939 95 97 107
800 1550 -2394.89 -0.264758 -0.117286 0.957156 95 97 107
800 1532.2 -2400 -0.256937 -0.26676 0.928882 96 98 108
-1200 50 -2839.52 0.665587 0.540613 0.51452 187 190 209
-1191.9 50 -2850 0.680149 0.528791 0.507718 187 190 209
-1200 59.4398 -2850 0.654967 0.562284 0.504832 187 190 209
-1200 2.91076 -2800 0.820834 0.367198 0.437489 174 181 205
-1198.7 -0 -2800 0.82566 0.360486 0.433976 174 181 205
-1180.13 -0 -2850 0.910036 0.149911 0.386472 174 181 205
-1200 100 -2895.88 0.510839 0.624735 0.590549 189 192 212
-1195.21 100 -2900 0.531834 0.592547 0.605013 189 192 212
-1161.15 50 -2900 0.810056 0.128683 0.572058 189 192 212
-1163.62 -0 -2900 0.917463 -0.0856811 0.388484 178 184 209
-1150 50 -2915.59 0.826283 0.0298039 0.562466 187 193 210
-1150 100 -2931.34 0.653429 0.149134 0.742152 187 193 210
-1124.4 100 -2950 0.588357 -0.00799654 0.808562 194 199 213
-1125.08 50 -2950 0.80667 -0.195921 0.557584 194 199 213
-1150 -0 -2931.74 0.927329 -0.115032 0.356132 180 186 211
-1143.44 -0 -2950 0.910284 -0.203316 0.360619 180 187 209
-800 1.34054 -2950 -0.749295 0.329523 0.574431 206 206 205
-800.589 -0 -2950 -0.74882 0.329267 0.575198 206 206 205
-800 -0 -2949.23 -0.748476 0.32913 0.575723 206 206 205
-1100 50 -2989.58 0.841501 -0.353589 0.408475 192 198 211
-1100 100 -2967.73 0.665221 -0.179313 0.724795 192 198 211
-1058.5 100 -3000 0.559116 -0.561219 0.610265 198 201 215
-1094.02 50 -3000 0.679717 -0.608598 0.409383 198 201 215
-800 63.7105 -3000 -0.610823 0.582946 0.535788 214 214 214
-812.737 50 -3000 -0.693244 0.477067 0.540204 214 214 214
-800 50 -2986.38 -0.604338 0.561439 0.565298 214 214 214
-1128.19 -0 -3000 0.827446 -0.474446 0.300389 188 193 213
-1100 43.9812 -3000 0.677139 -0.633697 0.374046 188 193 213
-831.351 -0 -3000 -0.827052 0.245329 0.505765 205 206 205
-844.483 400 -3050 0.967158 -0.0633753 0.246147 252 253 253
-850 400 -3028.32 0.966218 -0.0648437 0.249437 252 253 253
-847.76 350 -3050 0.952815 -0.0251233 0.30251 252 253 253
-850 350 -3042.99 0.95403 -0.0245496 0.298703 252 253 253
-846.137 300 -3050 0.988802 0.0221304 0.147581 251 255 254
-850 300 -3022.94 0.990347 0.0216743 0.136907 251 255 254
-846.755 250 -3050 0.993424 0.0211309 0.112527 252 253 253
-850 250 -3020.26 0.991986 0.0112506 0.125848 252 253 253
-844.674 200 -3050 0.870066 -0.232395 0.434716 253 254 254
-850 200 -3039.62 0.865044 -0.233914 0.443828 253 254 254
-850 182.252 -3050 0.859609 -0.257984 0.441039 253 254 254
-1059.39 50 -3050 0.596515 -0.601936 0.530889 199 203 214
-1050 60.0887 -3050 0.558995 -0.597223 0.575195 199 203 214
-1050 100 -3007.52 0.480641 -0.62835 0.611687 199 203 214
-1000 100 -3026.54 0.205128 -0.733597 0.647887 209 211 219
-1000 79.5705 -3050 0.207307 -0.752491 0.625125 209 211 219
-950 100 -3037.49 0.245099 -0.741345 0.624768 220 221 222
-950 89.4771 -3050 0.250336 -0.742607 0.621181 220 221 222
-924.495 100 -3050 0.311408 -0.754774 0.577357 219 221 221
-800 86.9404 -3050 -0.559759 0.751509 0.349149 212 214 212
-849.595 50 -3050 -0.822171 0.197939 0.533718 212 214 212
-1113.6 -0 -3050 0.790452 -0.562278 0.24296 189 195 214
-1100 18.8067 -3050 0.724136 -0.630723 0.278954 189 195 214
-850 47.7267 -3050 -0.789488 0.191692 0.583063 207 209 208
-863.304 -0 -3050 -0.707455 0.19721 0.678687 207 209 208
-850 -0 -3036.96 -0.755485 0.173105 0.631884 207 209 208
-1050 50 -3060.26 0.545108 -0.625038 0.558735 198 200 209
-1000 50 -3089.94 0.16837 -0.765057 0.621563 214 216 222
-950 50 -3095.7 -0.141987 -0.585068 0.798458 219 220 222
-900 100 -3064.46 0.148847 -0.312885 0.938055 222 224 223
-900 50 -3082.01 -0.376215 -0.283893 0.881968 222 224 223
-865.279 100 -3100 0.413933 0.729954 0.543899 221 222 222
-850 91.336 -3100 0.410684 0.71263 0.568768 221 222 222
-850 50 -3050.82 -0.883285 0.158379 0.441275 221 222 222
-1100 -0 -3098.71 0.460181 -0.828235 0.31978 193 198 215
-1099.08 -0 -3100 0.452062 -0.829045 0.329126 194 198 213
-1050 24.4162 -3100 0.309339 -0.782225 0.540771 194 198 213
-1000 41.5222 -3100 0.143532 -0.738323 0.658997 202 206 216
-950 44.0474 -3100 -0.183542 -0.571283 0.799968 208 212 219
-905.724 -0 -3100 -0.450861 -0.453197 0.768984 213 216 219
-900 -0 -3096.69 -0.461744 -0.389008 0.797161 213 216 219
-850 100 -3110.37 0.399008 0.703634 0.587955 220 222 221
-1050 -0 -3136.67 0.20567 -0.814544 0.542419 198 202 214
-1000 -0 -3143.38 -0.0094317 -0.7541 0.656692 207 208 218
-950 -0 -3129.22 -0.276761 -0.585043 0.762317 211 212 218
750 1650 -2441.51 -0.622055 0.260575 0.738341 95 97 111
739.831 1650 -2450 -0.572333 0.171692 0.801846 95 97 111
750 1600 -2418.62 -0.499788 0.349168 0.79265 95 97 111
720.267 1600 -2450 -0.70625 0.276354 0.651797 95 97 111
800 1600 -2404.1 -0.741429 -0.406589 0.533825 95 98 110
800 1604.48 -2400 -0.746169 -0.449881 0.490753 95 98 110
772.554 1650 -2400 -0.776969 -0.461638 0.428029 95 98 110
600 1700 -2492.65 -0.333463 -0.180516 0.92532 95 98 113
580.3 1700 -2500 -0.354975 -0.132601 0.925424 95 98 113
600 1650 -2498.66 -0.363203 -0.0226264 0.931435 95 98 113
596.748 1650 -2500 -0.382188 -0.0283627 0.923649 95 98 113
650 1650 -2496.27 -0.273833 -0.0828163 0.958205 96 98 112
650 1700 -2454.87 -0.335105 -0.475678 0.813287 96 98 112
700 1650 -2464.81 -0.361453 -0.270234 0.892371 96 98 113
700 1692.96 -2450 -0.148608 -0.322254 0.934916 96 98 113
669.666 1700 -2450 -0.170923 -0.373689 0.91167 96 98 113
600 1600 -2495.41 -0.374391 0.0599105 0.925333 96 99 112
589.03 1600 -2500 -0.39647 0.0612056 0.916005 96 99 112
650 1600 -2478.24 -0.14796 0.274243 0.95021 97 99 113
700 1600 -2472.37 -0.512724 0.129142 0.848786 96 100 112
450 1700 -2539.62 -0.307976 -0.0314863 0.950873 94 96 108
424.674 1700 -2550 -0.555953 -0.176392 0.812282 94 96 108
450 1650 -2541.09 -0.455812 -0.0352999 0.889376 94 96 108
436.748 1650 -2550 -0.621503 -0.0739307 0.779916 94 96 108
500 1650 -2532.85 -0.1968 -0.0227417 0.98018 94 97 111
500 1700 -2530.37 -0.237625 -0.0788012 0.968155 94 97 111
550 1650 -2520.66 -0.332055 -0.0520323 0.941824 95 97 112
550 1700 -2511.19 -0.345456 -0.174626 0.922044 95 97 112
450 1600 -2539.55 -0.632164 -0.0386856 0.773868 93 96 109
440.933 1600 -2550 -0.76501 -0.0640205 0.640829 93 96 109
500 1600 -2533.25 -0.183258 -0.00509311 0.983052 97 98 111
550 1600 -2518.95 -0.378236 0.0330787 0.925118 96 99 112
400 1700 -2569.14 -0.566495 -0.300584 0.76729 93 95 107
410.281 1750 -2550 -0.281448 -0.291965 0.914081 93 95 107
400 1750 -2552.68 -0.240721 -0.303358 0.921969 93 95 107
400 1650 -2598.83 -0.783298 -0.175395 0.596391 92 95 107
400 1645.89 -2600 -0.787283 -0.160093 0.595446 94 97 108
405.205 1600 -2600 -0.705095 -0.078979 0.704701 94 97 108
400 1600 -2605.02 -0.692062 -0.0784835 0.717559 94 98 108
-400 1000 -3047.54 0.887421 0.125894 0.443435 64 64 67
-398.773 1000 -3050 0.887623 0.126668 0.442811 64 64 67
-400 1007.11 -3050 0.884371 0.152533 0.441159 64 64 67
-400 955.983 -3050 0.942122 -0.0284823 0.334059 64 64 66
-377.597 1200 -3100 0.824453 0.000449368 0.56593 63 63 67
-400 1200 -3069.11 0.818505 0.0122962 0.574368 63 63 67
-377.569 1150 -3100 0.834379 -0.0134557 0.551026 63 63 67
-400 1150 -3066.26 0.837941 0.00328739 0.54575 63 63 67
-379.924 1100 -3100 0.851565 -0.0111019 0.524131 63 63 66
-400 1100 -3066.4 0.859293 0.00443935 0.511465 63 63 66
-379.478 1050 -3100 0.871504 0.0350194 0.489137 63 64 66
-400 1050 -3064.98 0.859964 0.0911404 0.50215 63 64 66
-376.612 1000 -3100 0.909495 -0.0272037 0.414824 64 64 67
-400 950 -3050.52 0.940491 -0.0251875 0.338885 64 65 67
-382.515 950 -3100 0.918225 -0.0033179 0.396044 64 65 67
-378.549 900 -3100 0.906765 -0.0257995 0.420847 65 65 68
-400 900 -3057.23 0.898557 -0.055694 0.435309 65 65 68
-382.833 850 -3100 0.907013 -0.0181155 0.420713 65 65 67
-400 850 -3059.91 0.918077 -0.00656926 0.396347 65 65 67
-382.119 800 -3100 0.910967 -0.00397961 0.41246 64 65 65
-400 800 -3059.76 0.913837 0.00120951 0.406079 64 65 65
-350 1150 -3142.94 0.840102 -0.0269388 0.541759 63 64 66
-350 1200 -3143.37 0.832512 0.00208931 0.554003 63 64 66
-345.553 1200 -3150 0.832063 0.00194761 0.554677 64 64 67
-345.436 1150 -3150 0.841221 -0.0290452 0.53991 64 64 67
-350 1100 -3148.57 0.825687 -0.0324497 0.563194 64 64 67
-349.024 1100 -3150 0.825108 -0.0320291 0.564066 64 64 67
-350 1050 -3148.78 0.81619 -0.0721784 0.573258 64 64 67
-349.142 1050 -3150 0.816132 -0.072656 0.573279 65 66 68
-353.15 1000 -3150 0.895021 -0.0680523 0.440802 65 65 68
-350 1041.71 -3150 0.835947 -0.0831345 0.542478 65 65 68
-357.225 950 -3150 0.859822 -0.0177324 0.510286 65 65 67
-356.149 900 -3150 0.90463 -0.0174733 0.425839 65 65 67
-357.57 850 -3150 0.895331 -0.0324485 0.444218 64 64 65
-360.462 800 -3150 0.911619 -0.0620619 0.406324 64 65 67
-313.53 1200 -3200 0.852023 -0.0206008 0.523098 64 63 66
-315.681 1150 -3200 0.848335 -0.0244149 0.528896 64 63 66
-314.248 1100 -3200 0.829076 -0.00661575 0.559097 64 65 67
-317.922 1050 -3200 0.845699 -0.0771153 0.528059 64 65 67
-350 1000 -3156.43 0.889951 -0.0690927 0.450792 64 65 67
-323.372 1000 -3200 0.85039 -0.0590426 0.52283 64 65 67
-350 950 -3161.6 0.848914 -0.0241119 0.52798 66 66 68
-325.211 950 -3200 0.842664 -0.0395377 0.536987 66 66 68
-350 900 -3163.16 0.893099 -0.0196034 0.449433 66 66 68
-327.303 900 -3200 0.848642 -0.0269105 0.528282 65 65 67
-350 850 -3165.11 0.883583 -0.03837 0.466699 65 66 67
-329.015 850 -3200 0.855097 -0.0405141 0.516883 66 66 68
-350 800 -3173.61 0.877404 -0.0804177 0.472964 64 65 66
-332.351 800 -3200 0.837379 -0.0815846 0.5405 66 66 68
-284.831 -50 -3200 0.685786 0.367336 0.6283 43 44 45
-250 -50 -3240.55 0.541024 0.343108 0.767834 43 44 45
-250 -0 -3227.27 0.577128 -0.172194 0.798294 43 44 45
-279.372 -0 -3200 0.678467 -0.0740674 0.730887 43 44 45
-200 -7.71611 -3250 0.215428 -0.362011 0.906939 42 43 44
-200 -0 -3246.95 0.202707 -0.358241 0.911358 42 43 44
-233.506 -50 -3250 0.464239 0.32165 0.825241 42 43 44
-181.671 -0 -3250 0.153974 -0.365758 0.917885 41 40 44
-100 -0 -3229.95 -0.443285 -0.275838 0.852884 40 39 42
-139.515 -0 -3250 -0.436159 -0.360448 0.824526 40 39 42
-100 -50 -3246.12 -0.542154 0.188773 0.8188 40 39 42
-106.034 -50 -3250 -0.534477 0.159767 0.829945 40 39 42
-59.5827 -50 -3200 -0.621034 0.563991 0.544271 43 43 45
-50 -11.6116 -3200 -0.400623 0.241373 0.883878 43 43 45
-50 -0 -3203.17 -0.329324 0.240673 0.913029 43 43 45
-39.1369 -0 -3200 -0.270649 0.253204 0.928783 44 44 45
-250 -71.2807 -3200 0.383837 0.817379 0.429606 39 39 40
-200 -60.6505 -3250 0.224747 0.844992 0.485261 36 37 38
-200 -87.0603 -3200 0.212146 0.860838 0.462549 36 37 38
-150 -69.1178 -3250 -0.0427452 0.87318 0.48552 35 36 38
-150 -97.0737 -3200 0.0628423 0.871109 0.487052 35 36 38
-100 -94.5051 -3200 -0.354354 0.736456 0.576252 34 33 36
-200 -50 -3268.28 0.307615 0.565165 0.765481 42 43 44
-150 -0 -3255.37 -0.295289 -0.397016 0.869013 40 40 43
-150 -50 -3278.53 -0.164011 0.437979 0.883898 40 40 43
-1650 1192.87 -2000 0.31351 0.0603454 0.947665 64 62 61
-1650 1200 -2000.45 0.443492 0.057087 0.894459 64 62 61
-1650.91 1200 -2000 0.446923 0.0568494 0.892764 64 62 61
-1612.58 1150 -2000 0.67503 0.258977 0.690844 70 66 63
-1600 1150 -2012.47 0.665731 0.210649 0.715842 70 66 63
-1600 1200 -2014.69 0.273618 0.0426232 0.960894 70 66 63
-1605.66 1100 -2000 0.895568 0.170242 0.411067 68 65 61
-1600 1100 -2012.65 0.901855 0.155378 0.403133 68 65 61
-1600 1079.16 -2000 0.886132 0.240563 0.396105 68 66 62
-1604.81 950 -2000 0.87818 -0.195687 0.436471 65 63 59
-1600 950 -2009.68 0.88141 -0.192476 0.431357 65 63 59
-1600 968.745 -2000 0.872743 -0.223972 0.433769 65 63 59
-1611.64 900 -2000 0.945331 -0.118818 0.303696 64 62 58
-1600 900 -2037.81 0.94667 -0.103347 0.305181 64 62 58
-1615.66 850 -2000 0.957742 -0.0246276 0.286572 63 61 57
-1600 850 -2042.4 0.954585 -0.0727842 0.288911 63 61 57
-1602.89 800 -2050 0.96337 -0.0674846 0.259546 61 60 57
-1600 835.245 -2050 0.980108 -0.0803767 0.181458 61 60 57
-1609.18 800 -2000 0.984088 0.127533 0.12372 61 60 57
-1600 800 -2060.41 0.960563 -0.0787739 0.266669 53 48 46
235.984 1600 -2850 -0.79866 -0.413366 0.437345 87 88 97
250 1574.32 -2850 -0.783923 -0.510611 0.353186 87 88 97
250 1600 -2828.31 -0.770596 -0.411287 0.486852 87 88 97
267.37 1600 -2800 -0.901951 -0.258087 0.346231 88 91 99
262.396 1550 -2850 -0.938348 -0.293115 -0.183267 88 91 99
266.637 1550 -2800 -0.989703 -0.115931 0.0839472 88 91 99
279.52 1500 -2800 -0.980211 -0.153155 0.125416 89 92 101
272.457 1500 -2850 -0.956224 0.140383 0.256767 89 92 101
283.953 1450 -2800 -0.942745 0.0687394 0.326354 89 92 101
262.682 1450 -2850 -0.897181 0.0940983 0.431523 89 92 101
278.664 1400 -2800 -0.942596 0.0413214 0.331369 91 94 102
262.389 1400 -2850 -0.92177 -0.0287309 0.386671 91 94 102
277.181 1350 -2800 -0.95364 -0.10646 0.281491 91 94 102
262.972 1350 -2850 -0.950584 -0.0880607 0.297716 91 94 102
289.158 1300 -2800 -0.940476 -0.15645 0.301708 91 95 102
272.525 1300 -2850 -0.931516 -0.149921 0.331364 91 95 102
295.21 1250 -2800 -0.946367 -0.104469 0.305738 92 96 104
279.221 1250 -2850 -0.942176 0.0371092 0.333059 92 96 104
299.927 1200 -2800 -0.907006 0.0432685 0.418888 92 96 105
266.684 1200 -2850 -0.871291 0.209095 0.443995 92 96 105
250 1550 -2881.06 -0.554695 -0.383155 0.738583 87 90 98
240.856 1550 -2900 -0.917089 -0.169939 0.360651 87 90 98
224.98 1600 -2900 -0.937894 -0.297796 0.177966 87 90 98
279.113 1550 -2900 0.418167 -0.0938329 0.903511 89 91 100
300 1554.67 -2900 -0.398183 -0.917149 -0.0169809 89 91 100
300 1550 -2893.7 -0.622872 -0.235449 -0.746052 89 91 100
308.251 1550 -2900 -0.945944 -0.295435 -0.133819 91 94 104
250 1500 -2882.12 -0.836596 0.136506 0.530541 86 89 97
241.756 1500 -2900 -0.910605 0.033564 0.411913 86 89 97
300 1541.19 -2900 -0.568186 0.8168 0.100007 89 92 100
250 1450 -2874.07 -0.891281 0.053632 0.450269 87 91 99
238.12 1450 -2900 -0.91789 0.0286311 0.3958 87 91 99
250 1400 -2874.13 -0.888655 -0.0694573 0.453285 88 91 99
236.753 1400 -2900 -0.906523 -0.0680464 0.416636 88 91 99
250 1350 -2891.67 -0.934047 -0.136737 0.329937 89 91 99
247.054 1350 -2900 -0.931789 -0.144309 0.333082 89 91 99
250 1327.5 -2900 -0.934483 -0.116836 0.33629 88 91 99
253.401 1300 -2900 -0.92084 -0.0994871 0.377036 91 95 103
258.11 1250 -2900 -0.895309 0.0945334 0.435299 91 96 105
250 1213.08 -2900 -0.901232 0.194696 0.387135 89 92 100
247.182 1200 -2900 -0.90685 0.194835 0.373714 89 92 100
250 1200 -2893.07 -0.908471 0.195979 0.36915 89 92 100
216.976 1600 -2950 -0.942377 -0.192628 0.273533 86 89 97
225.288 1550 -2950 -0.944399 -0.0275642 0.327645 86 89 97
300 1550 -2908.37 -0.384611 -0.274256 0.881396 89 92 101
217.942 1500 -2950 -0.925043 0.0590605 0.375244 86 90 98
221.404 1450 -2950 -0.93286 0.00246657 0.36023 87 91 99
216.921 1400 -2950 -0.938243 -0.0708835 0.338638 87 90 98
228.105 1350 -2950 -0.941537 -0.181353 0.283936 88 91 99
250 1300 -2908.2 -0.922141 -0.0930763 0.37549 88 91 99
235.196 1300 -2950 -0.945027 -0.0526561 0.322725 88 91 99
250 1250 -2916.21 -0.899099 0.0758954 0.431115 88 91 100
234.247 1250 -2950 -0.893385 0.111277 0.435294 88 91 100
225.403 1200 -2950 -0.896797 0.111531 0.428155 89 91 99
199.794 1600 -3000 -0.952303 -0.155254 0.262709 79 82 89
200 1598.74 -3000 -0.950729 -0.156502 0.267623 79 82 89
200 1600 -2999.25 -0.952248 -0.155867 0.262543 79 82 89
208.316 1550 -3000 -0.89338 0.00695119 0.449248 85 89 97
200 1504.2 -3000 -0.927768 0.173237 0.330507 81 82 89
199.214 1500 -3000 -0.934997 0.155672 0.318664 81 82 89
200 1500 -2997.66 -0.936936 0.151556 0.314933 81 82 89
200 1459.99 -3000 -0.929899 -0.0192233 0.367312 80 82 88
200.205 1450 -3000 -0.911633 -0.0228285 0.41037 87 90 98
201.953 1400 -3000 -0.940627 -0.142567 0.30805 87 91 99
217.794 1350 -3000 -0.951903 -0.171749 0.253738 87 91 98
219.066 1300 -3000 -0.923153 0.116499 0.366355 89 92 99
203.133 1250 -3000 -0.903842 0.119231 0.410917 88 91 98
205.334 1200 -3000 -0.924911 -0.040709 0.377998 89 92 99
200 1550 -3014.91 -0.872982 0.00906621 0.487668 81 82 88
180.32 1550 -3050 -0.927852 0.0283748 0.371868 81 82 88
187.024 1600 -3050 -0.956076 0.128201 0.263596 81 82 88
185.08 1500 -3050 -0.946299 0.0116874 0.323082 81 83 88
200 1450 -3000.46 -0.911489 -0.0229116 0.410685 81 83 88
179.131 1450 -3050 -0.939618 -0.0198191 0.34165 81 83 88
200 1400 -3005.8 -0.93674 -0.150204 0.316161 81 82 87
186.272 1400 -3050 -0.925302 -0.207745 0.317267 81 82 87
200 1359.97 -3050 -0.890318 -0.27115 0.365802 81 82 88
202.941 1350 -3050 -0.908278 -0.172694 0.381061 87 91 98
200 1320.75 -3050 -0.885395 0.114108 0.450615 80 83 87
197.051 1300 -3050 -0.877722 0.165863 0.449548 80 83 87
200 1300 -3044.2 -0.88118 0.170182 0.44109 80 83 87
200 1250 -3007.08 -0.910995 0.11181 0.396971 80 83 87
183.375 1250 -3050 -0.935288 0.0672408 0.347441 80 83 87
200 1200 -3012.99 -0.92739 -0.044645 0.371421 79 83 88
186.706 1200 -3050 -0.945176 -0.0566749 0.321606 79 83 88
172.202 1600 -3100 -0.909383 0.172294 0.378598 80 81 88
159.966 1550 -3100 -0.929621 0.0754806 0.360704 80 81 88
164.807 1500 -3100 -0.930383 -0.0162739 0.366229 80 81 87
161.241 1450 -3100 -0.945304 -0.040403 0.323678 80 82 86
172.377 1400 -3100 -0.937534 -0.119731 0.326641 80 83 87
200 1350 -3056.82 -0.903091 -0.152029 0.401639 79 82 86
174.231 1350 -3100 -0.892921 0.0074458 0.450153 79 82 86
169.696 1300 -3100 -0.899658 0.046991 0.434059 79 82 86
168.411 1250 -3100 -0.952918 -0.00743017 0.303138 79 82 86
170.102 1200 -3100 -0.946818 -0.0239214 0.320878 79 82 86
150 1600 -3141.64 -0.88424 0.13321 0.447632 72 74 77
145.812 1600 -3150 -0.899002 0.116382 0.422198 72 74 77
150 1550 -3126.76 -0.939344 0.0351139 0.341175 72 74 77
142.428 1550 -3150 -0.948882 0.000905582 0.31563 72 74 77
150 1500 -3136.09 -0.930308 -0.0201108 0.366227 73 74 77
144.52 1500 -3150 -0.932021 -0.0130084 0.362171 73 74 77
150 1450 -3134.54 -0.94936 -0.049441 0.310276 72 73 77
145.09 1450 -3150 -0.948954 -0.06099 0.309461 72 73 77
150 1405.86 -3150 -0.873225 -0.154587 0.462147 73 74 77
151.092 1400 -3150 -0.85904 -0.0793462 0.505723 80 81 86
150 1388.32 -3150 -0.896158 0.0678253 0.438522 73 74 77
147.637 1350 -3150 -0.914096 0.0613371 0.400833 73 74 77
150 1350 -3144.68 -0.908953 0.0615776 0.412325 73 74 77
150 1300 -3136.58 -0.87159 -0.053589 0.487298 73 75 77
