ply
format ascii 1.0
comment Generated by the ZED SDK.
element vertex 842
property float32 x
property float32 y
property float32 z
property float32 nx
property float32 ny
property float32 nz
property uchar red
property uchar green
property uchar blue
end_header
-1550 1344.48 -2150 0.816069 -0.455721 0.355457 85 78 73
-1563.7 1250 -2150 0.837657 -0.0133149 0.546034 88 82 75
-1557.81 1200 -2150 0.874122 0.0582113 0.482206 89 82 75
-1509.67 1600 -2200 0.910029 0.0184281 0.414136 159 142 102
-1508.9 1550 -2200 0.839346 0.105749 0.533212 159 142 102
-1500 1500 -2197.9 0.839615 0.170807 0.515628 150 136 100
-1500 1506.43 -2200 0.852199 0.161067 0.497809 150 136 100
-1498.69 1500 -2200 0.833059 0.173498 0.525273 156 141 107
-1500 1450 -2187.25 0.704006 0.115071 0.700809 140 129 104
-1486.77 1450 -2200 0.642383 0.116866 0.757421 148 136 107
-1500 1400 -2181.29 0.66517 0.0532084 0.744794 135 127 103
-1479.3 1400 -2200 0.614343 0.0710691 0.785832 146 137 112
-1500 1350 -2176.9 0.603581 -0.0166275 0.797128 139 127 103
-1474.54 1350 -2200 0.664696 -0.0464941 0.745666 145 135 113
-1550 1300 -2161.75 0.754107 -0.124397 0.644863 98 90 77
-1500 1300 -2177.33 0.658533 -0.059618 0.750186 134 121 96
-1483.11 1300 -2200 0.776405 -0.104025 0.62159 148 138 111
-1550 1250 -2167.18 0.68063 -0.0146379 0.732482 102 93 80
-1500 1250 -2182.99 0.760258 -0.0861613 0.643882 136 123 97
-1490.62 1250 -2200 0.845457 -0.0700578 0.529428 164 154 122
-1550 1200 -2163.52 0.803006 0.0435307 0.594378 108 98 82
-1500 1200 -2191.21 0.802795 -0.0821577 0.590568 138 123 92
-1494.7 1200 -2200 0.839617 -0.0740523 0.538107 182 170 132
-1500 1550 -2211.53 0.75083 0.118988 0.64969 142 127 90
-1500 1600 -2217.55 0.867948 0.0197235 0.496264 142 127 90
-1450 1500 -2228.28 0.412035 0.0949369 0.906208 157 144 115
-1450 1550 -2227.72 0.473001 0.116567 0.873317 157 144 115
-1427.5 1550 -2250 0.662321 0.337484 0.668906 165 150 117
-1402.02 1500 -2250 0.629476 0.190839 0.75322 165 150 117
-1450 1450 -2223.25 0.384231 0.0981708 0.918003 151 141 116
-1400 1493.32 -2250 0.585145 0.183702 0.789847 152 140 112
-1400 1450 -2234.44 0.631359 0.136262 0.763425 152 140 112
-1450 1400 -2219 0.408138 0.0195678 0.91271 146 137 117
-1400 1400 -2224.99 0.65003 -0.000186751 0.759908 144 130 108
-1389.39 1450 -2250 0.824197 0.070427 0.561907 185 174 153
-1385.12 1400 -2250 0.856503 0.00951837 0.516054 185 174 153
-1450 1350 -2222.79 0.512323 -0.135611 0.848018 148 139 116
-1400 1350 -2233.68 0.699488 -0.0780215 0.710373 143 133 109
-1389.54 1350 -2250 0.84254 -0.0468572 0.536592 178 168 146
-1450 1300 -2243.22 0.373408 -0.211314 0.903279 153 143 116
-1400 1300 -2240.06 0.490164 -0.186165 0.851517 150 140 116
-1389.87 1300 -2250 0.713543 -0.0826107 0.695724 180 169 148
-1450 1250 -2246.49 0.378942 -0.108562 0.919031 171 160 129
-1400 1279.13 -2250 0.304089 -0.409501 0.860139 162 151 124
-1439.23 1250 -2250 0.306599 -0.15992 0.938309 162 151 124
-1450 1200 -2242.5 0.530786 0.0673263 0.844827 186 174 136
-1436.66 1200 -2250 0.477627 0.0659489 0.876084 173 158 128
-1400 1500 -2251.74 0.641378 0.193852 0.742331 180 166 144
50 350 -3214.23 -0.50428 0.585546 0.634695 56 56 59
50 395.66 -3250 -0.70405 0.456119 0.544306 56 56 59
0 350 -3234.89 -0.363665 0.671379 0.645754 56 56 59
0 363.038 -3250 -0.445886 0.683409 0.578046 56 56 59
52.6869 400 -3250 -0.719628 0.445313 0.532759 58 59 60
64.5414 350 -3200 -0.596025 0.542183 0.592277 58 59 60
88.9247 400 -3200 -0.753117 0.36727 0.545827 58 59 60
0 317.254 -3200 -0.256799 0.704657 0.661447 49 49 52
50 335.476 -3200 -0.490281 0.61224 0.620312 49 49 52
0 -0 -3206.53 -0.635909 -0.601395 0.483677 42 42 45
4.97051 -0 -3200 -0.635909 -0.601395 0.483677 42 42 45
0 5.25576 -3200 -0.635909 -0.601395 0.483677 42 42 45
0 400 -3296.34 -0.462149 0.68533 0.562798 56 55 58
50 400 -3253.64 -0.70971 0.453018 0.539524 56 55 58
-396.059 2000 -3050 0.661571 -0.0183063 0.749659 62 62 66
-400 2000 -3046.6 0.652655 -0.0180437 0.75744 62 62 66
-397.442 1950 -3050 0.665118 0.0958104 0.740566 62 62 66
-400 1950 -3047.7 0.665044 0.092612 0.741039 62 62 66
-381.392 1900 -3050 0.647547 0.081083 0.7577 63 63 66
-400 1900 -3035.84 0.598242 0.0943295 0.795744 63 63 66
-380.543 1850 -3050 0.632964 0.00477919 0.774167 63 63 65
-400 1850 -3037.07 0.562482 0.00211462 0.826807 63 63 65
-379.286 1800 -3050 0.675003 -0.0444142 0.736477 63 63 65
-400 1800 -3032.69 0.645665 -0.0328724 0.762913 63 63 65
-390.039 1750 -3050 0.657479 -0.338812 0.672999 63 62 65
-400 1750 -3039.88 0.667792 -0.349624 0.657128 63 62 65
-400 1735.46 -3050 0.615538 -0.41558 0.669631 63 62 65
-350 1950 -3086.09 0.672172 0.106563 0.732686 63 63 66
-350 1989.8 -3100 0.62142 0.254097 0.741129 63 63 66
-354.208 2000 -3100 0.621394 0.254217 0.741109 63 63 66
-334.612 1950 -3100 0.712549 0.0651052 0.698595 63 63 65
-350 1900 -3087.48 0.847216 0.142957 0.511652 63 64 67
-344.114 1900 -3100 0.869611 0.197893 0.452344 62 62 66
-350 1850 -3086.7 0.5811 -0.0225312 0.81352 62 62 65
-314.4 1850 -3100 0.563448 0.148452 0.812705 62 63 66
-350 1800 -3081.58 0.815112 -0.034497 0.578275 62 63 65
-338.697 1800 -3100 0.799547 -0.112299 0.590012 62 62 65
-350 1750 -3093.05 0.830902 -0.131699 0.540608 63 62 65
-345.71 1750 -3100 0.845553 -0.127377 0.518474 62 62 66
-400 1700 -3064.77 0.671022 -0.21178 0.710548 63 62 65
-354.139 1700 -3100 0.808706 -0.211459 0.548889 63 62 65
-350 1722.37 -3100 0.812629 -0.14484 0.564496 63 62 65
-376.22 1650 -3100 0.793607 -0.113779 0.597698 63 64 65
-400 1650 -3058.74 0.842598 -0.0193126 0.538196 63 64 65
-377.547 1600 -3100 0.734164 -0.082464 0.673945 63 62 65
-400 1600 -3079.78 0.638584 -0.298552 0.709279 63 62 65
-350 2000 -3103.53 0.624339 0.253726 0.738799 62 62 66
-300 2000 -3138.26 0.756237 -0.208469 0.620198 62 62 66
-300 1965.08 -3150 0.815427 -0.240932 0.526337 62 62 66
-304.773 1950 -3150 0.836507 -0.230025 0.497337 62 62 66
-291.586 2000 -3150 0.799793 -0.202726 0.565007 62 61 65
-311.937 1900 -3150 0.750816 0.188511 0.63304 63 63 66
-300 1850 -3110.86 0.70523 0.296242 0.644121 62 62 65
-300 1874.08 -3150 0.760453 0.387037 0.521453 62 62 65
-287.769 1850 -3150 0.854952 0.223593 0.468041 62 61 64
-300 1800 -3144.41 0.527187 -0.382064 0.759013 62 62 66
-291.356 1800 -3150 0.535749 -0.372035 0.757999 63 62 65
-316.264 1750 -3150 0.830819 -0.231899 0.505927 62 62 66
-300 1788.06 -3150 0.601762 -0.379855 0.702562 62 62 66
-350 1700 -3106.45 0.82423 -0.206819 0.527134 63 63 65
-324.654 1700 -3150 0.829017 -0.150468 0.5386 62 62 65
-350 1650 -3132.82 0.766573 -0.104064 0.633669 64 64 66
-336.084 1650 -3150 0.771199 -0.0479523 0.634786 63 63 66
-350 1600 -3125.66 0.722399 0.0980315 0.684492 63 62 64
-329.269 1600 -3150 0.761729 0.067431 0.644378 63 64 67
-300 1950 -3158.05 0.833976 -0.220625 0.505775 62 62 66
-273.691 1950 -3200 0.82798 -0.105841 0.550678 62 61 65
-251.274 2000 -3200 0.735012 -0.329532 0.592593 62 61 65
-300 1900 -3162.7 0.727569 0.174444 0.663486 63 63 66
-268.778 1900 -3200 0.729292 0.27231 0.627679 62 61 65
-250 1850 -3181.71 0.774766 0.0686055 0.628515 62 61 64
-250 1874.17 -3200 0.68708 0.430272 0.58548 62 61 64
-237.471 1850 -3200 0.823046 0.068468 0.563832 59 59 61
-262.928 1800 -3200 0.725357 -0.358357 0.587739 63 62 66
-250 1819.96 -3200 0.690423 -0.376209 0.617886 63 62 66
-300 1750 -3177.92 0.854725 -0.183309 0.485637 62 62 65
-288.672 1750 -3200 0.876082 -0.140901 0.461116 62 61 64
-300 1700 -3183.41 0.777676 -0.0603582 0.625761 62 62 65
-286.621 1700 -3200 0.788827 -0.0337333 0.613689 62 61 65
-300 1650 -3186.47 0.741098 -0.0396612 0.670224 62 62 65
-287.753 1650 -3200 0.743066 -0.0509071 0.667279 61 60 63
-300 1600 -3190.13 0.784468 -0.0453433 0.61851 63 63 66
-292.065 1600 -3200 0.775366 -0.0474054 0.629731 61 61 63
800 800 -2405.98 -0.550639 0.183344 0.81436 120 123 124
800 773.45 -2400 -0.550639 0.183344 0.81436 120 123 124
808.84 800 -2400 -0.550639 0.183344 0.81436 120 123 124
-335.563 750 -3200 0.865642 -0.0244543 0.500066 65 66 68
-303.036 800 -3250 0.862138 -0.0690012 0.501953 65 66 68
-333.002 800 -3200 0.856923 -0.0438833 0.513573 65 66 68
-307.096 750 -3250 0.882153 -0.0335539 0.469767 65 66 68
-335.257 700 -3200 0.867578 -0.0258921 0.496627 64 65 67
-306.573 700 -3250 0.865976 -0.0325753 0.499024 64 65 67
-338.659 650 -3200 0.875535 -0.0420879 0.481317 63 64 65
-311.623 650 -3250 0.881041 -0.04786 0.470612 63 64 65
-339.432 600 -3200 0.874678 4.0849e-05 0.484704 63 63 67
-311.458 600 -3250 0.871539 0.00362051 0.490312 63 63 67
-339.059 550 -3200 0.8768 0.00380424 0.480839 62 62 65
-311.856 550 -3250 0.876744 0.00860951 0.480881 62 62 65
-338.663 500 -3200 0.86942 0.0526468 0.49126 61 61 65
-309.984 500 -3250 0.860813 0.0830712 0.502096 61 61 65
-333.581 450 -3200 0.84896 0.116806 0.515387 61 61 64
-302.502 450 -3250 0.830934 0.12029 0.543211 61 61 64
-325.843 400 -3200 0.84821 0.118597 0.516212 60 60 62
-300 400 -3243.59 0.843815 0.107187 0.525821 60 60 62
-300 431.463 -3250 0.844085 0.110541 0.524692 60 60 62
-295.974 400 -3250 0.840737 0.105441 0.531078 60 60 62
-300 750 -3263.61 0.879827 -0.0327628 0.474164 65 66 68
-300 800 -3255.21 0.861366 -0.0738803 0.502583 65 66 68
-271.094 800 -3300 0.829548 -0.127483 0.543689 62 62 66
-278.777 750 -3300 0.85167 -0.052079 0.521485 62 62 66
-300 700 -3261.31 0.864552 -0.0324857 0.501492 64 65 67
-277.789 700 -3300 0.864556 -0.0284995 0.501727 62 62 66
-300 650 -3272.1 0.863261 -0.0458676 0.50267 64 64 67
-281.748 650 -3300 0.841443 -0.0227371 0.539867 63 63 66
-300 600 -3270.11 0.854563 0.00909848 0.519269 63 64 66
-280.259 600 -3300 0.828447 0.0247391 0.559521 62 62 65
-300 550 -3271.78 0.850034 0.00610484 0.526693 62 62 65
-278.984 550 -3300 0.808566 0.00735339 0.58836 61 61 65
-300 500 -3267.06 0.848496 0.0965605 0.520317 61 61 65
-278.563 500 -3300 0.835392 0.0982799 0.540797 61 61 63
-300 450 -3253.81 0.828598 0.120919 0.54663 61 61 64
-266.478 450 -3300 0.809902 0.132486 0.571407 60 60 63
-264.562 400 -3300 0.835647 0.0121118 0.549134 59 60 61
0 405.206 -3300 -0.421417 0.522679 0.74109 60 60 62
-6.45708 400 -3300 -0.421275 0.523138 0.740847 60 60 62
0 400 -3296.34 -0.420512 0.521556 0.742394 60 60 62
-250 750 -3346.24 0.636959 -0.124094 0.760844 62 62 66
-250 800 -3331.83 0.737313 -0.175585 0.652334 62 62 66
-229.821 800 -3350 0.657392 -0.201575 0.726087 62 61 63
-245.153 750 -3350 0.609003 -0.12457 0.783324 62 61 63
-250 700 -3348.6 0.66536 -0.00733903 0.746486 62 62 66
-248.39 700 -3350 0.656216 -0.00758742 0.754535 61 60 63
-250 650 -3347.1 0.675274 0.0322242 0.736862 62 62 65
-246.715 650 -3350 0.663713 0.0297609 0.747395 61 60 62
-250 600 -3342.68 0.759513 0.042319 0.649114 61 61 65
-243.519 600 -3350 0.75188 0.0420152 0.65796 61 60 63
-250 550 -3339.75 0.788467 -0.0334508 0.614167 61 61 64
-241.733 550 -3350 0.777982 -0.0423197 0.62686 59 59 61
-250 500 -3349.35 0.792931 0.0906601 0.602529 60 60 63
-249.502 500 -3350 0.791762 0.0911476 0.603991 59 59 60
-250 450 -3321.99 0.791611 0.152545 0.591678 60 60 62
-229.054 450 -3350 0.797023 0.158833 0.582689 58 58 60
0 488.033 -3350 -0.478178 0.359875 0.801147 61 60 64
-28.8013 450 -3350 -0.448275 0.486593 0.749851 61 60 64
0 450 -3332.68 -0.457804 0.446078 0.769045 61 60 64
-250 400 -3322.46 0.810578 -0.00550721 0.585605 59 60 60
-227.125 400 -3350 0.774793 0.0633887 0.629029 57 57 59
-100 416.378 -3350 -0.229348 0.56863 0.789974 55 54 57
-137.061 400 -3350 -0.245388 0.568601 0.785161 55 54 57
-100 400 -3338.35 -0.230758 0.566295 0.79124 55 54 57
-50 400 -3324.19 -0.324787 0.567863 0.756337 58 58 60
-50 434.094 -3350 -0.341964 0.579129 0.740048 58 58 60
-200 750 -3382.58 0.619879 -0.0986715 0.778469 61 60 63
-200 800 -3377.23 0.651334 -0.0960698 0.752685 61 60 63
-175.536 800 -3400 0.673544 -0.0457107 0.737732 58 58 60
-178.929 750 -3400 0.640827 -0.0831236 0.763172 58 58 60
-200 700 -3392.41 0.551071 -0.0488032 0.83303 60 60 62
-187.865 700 -3400 0.532467 -0.0246781 0.846091 58 58 59
-200 650 -3389.67 0.516963 -0.110957 0.848786 61 60 63
-180.723 650 -3400 0.471464 -0.100002 0.876197 57 57 58
-203.417 600 -3400 0.73479 -0.1354 0.664643 60 60 62
-200 613.722 -3400 0.634953 -0.206776 0.744365 60 60 62
0 606.966 -3400 -0.393845 0.219417 0.892604 62 61 65
-3.88533 600 -3400 -0.393489 0.236692 0.888337 62 61 65
0 600 -3398.28 -0.393864 0.234658 0.888711 62 61 65
-202.255 550 -3400 0.761679 -0.0411205 0.646648 59 59 60
0 550 -3378.48 -0.434023 0.345437 0.832044 62 61 65
-41.9324 550 -3400 -0.426402 0.337252 0.839311 62 61 65
-208.674 500 -3400 0.74171 0.0933504 0.664193 58 58 60
-100 515.19 -3400 -0.445937 0.394259 0.803555 57 56 59
-110.541 500 -3400 -0.562722 0.327039 0.759203 57 56 59
-100 500 -3392.48 -0.487467 0.363562 0.79385 57 56 59
-50 500 -3383.26 -0.30559 0.368769 0.877852 59 59 61
-50 539.871 -3400 -0.372796 0.351024 0.858956 59 59 61
0 500 -3355.34 -0.469106 0.359187 0.806799 62 61 64
-200 450 -3393.41 0.716533 0.347739 0.604697 58 58 59
-200 469.192 -3400 0.76355 0.207604 0.611467 58 58 59
-194.522 450 -3400 0.703344 0.387994 0.595624 56 55 58
-100 450 -3374.81 -0.475667 0.482837 0.735261 56 56 58
-118.297 450 -3400 -0.71303 0.461611 0.527734 56 56 58
-50 450 -3362.76 -0.358576 0.531189 0.767634 59 59 61
-200 400 -3378.01 0.285297 0.28214 0.915971 57 57 58
-150 426.327 -3400 -0.123636 0.864508 0.487176 55 54 56
-150 400 -3354 -0.241645 0.624565 0.742648 55 54 56
-150 750 -3423.95 0.518277 -0.010788 0.855145 57 57 59
-150 800 -3422.86 0.547227 -0.0424865 0.835906 57 57 59
-100 750 -3444.79 0.184311 -0.0234788 0.982588 57 57 59
-100 800 -3440.15 0.172186 -0.0638545 0.982993 57 57 59
-50 750 -3443.28 -0.183616 -0.0268086 0.982632 61 60 63
-50 800 -3443.91 -0.116853 0.0181064 0.992984 61 60 63
0 750 -3426.11 -0.318443 0.0679754 0.945502 62 61 64
0 800 -3428 -0.303166 0.035854 0.952263 62 61 64
-150 700 -3421.19 0.422845 0.0780535 0.902834 57 58 59
-100 700 -3441.2 0.232807 0.146004 0.961501 58 58 60
-50 700 -3447.49 -0.170436 0.115319 0.978597 61 60 63
0 700 -3420.19 -0.435624 0.101251 0.894416 62 61 65
-150 650 -3416.27 0.355126 0.0185494 0.934634 58 57 59
-100 650 -3430.74 0.143829 0.157516 0.976986 57 57 59
-50 650 -3431.51 -0.16452 0.246914 0.95497 60 60 62
0 650 -3410.05 -0.405629 0.215713 0.888219 62 61 65
-200 600 -3403.77 0.715295 -0.140928 0.684465 60 60 61
-150 600 -3416.13 0.147634 -0.0982167 0.984153 58 58 59
-100 600 -3425.33 0.0361768 0.143727 0.988956 58 58 60
-50 600 -3420 -0.235209 0.24174 0.941402 60 59 62
-200 550 -3402.65 0.747623 -0.039057 0.662974 58 58 60
-150 550 -3434.01 0.0464023 -0.0711895 0.996383 57 57 58
-100 550 -3416.49 -0.262231 0.223601 0.938743 57 57 59
-50 550 -3404.08 -0.392923 0.338086 0.855166 60 60 62
-200 500 -3409.37 0.694597 0.0674972 0.716226 58 58 60
-150 500 -3427.97 -0.0895851 -0.0561657 0.994394 57 57 59
-150 450 -3442.09 -0.134409 0.477381 0.868356 56 55 57
-1750 1550 -1768.7 -0.134573 -0.944861 -0.298541 52 52 52
-1750 1544.09 -1750 -0.134573 -0.944862 -0.298541 52 52 52
-1791.48 1550 -1750 -0.134573 -0.944862 -0.298541 52 52 52
-1913.59 1550 -1800 0.391209 -0.666091 0.635042 50 50 50
-1900 1550 -1808.37 0.296223 -0.741753 0.60171 50 50 50
-1900 1555.99 -1800 0.277258 -0.782985 0.556832 50 50 50
-1850 1550 -1814.4 0.0521359 -0.817679 0.573309 49 50 50
-1850 1556.63 -1800 0.0115964 -0.908371 0.418005 49 50 50
-1945.03 1500 -1800 0.619674 -0.293521 0.727908 50 50 50
-1900 1500 -1845.01 0.341904 -0.296816 0.891629 50 50 50
-1850 1506.08 -1850 0.111409 -0.523407 0.844768 50 51 51
-1877.12 1500 -1850 0.166118 -0.362249 0.917159 50 51 51
-1800 1550 -1821.03 0.101494 -0.620958 0.777245 52 52 52
-1800 1513.56 -1850 0.156403 -0.593659 0.789372 52 52 52
-1750 1550 -1827.79 0.471407 -0.643884 0.602652 54 54 54
-1750 1530.32 -1850 0.496304 -0.628095 0.599316 54 54 54
-1700 1550 -1820.36 -0.414274 -0.763857 -0.494874 55 55 55
-1700 1536.81 -1800 -0.414274 -0.763856 -0.494874 55 55 55
-1724.32 1550 -1800 -0.414274 -0.763857 -0.494874 55 55 55
-1731.65 1550 -1850 0.628176 -0.58566 0.512248 55 55 55
-1950 1450 -1818.9 0.596557 -0.221779 0.77132 50 50 50
-1906.86 1450 -1850 0.4114 -0.111549 0.904603 50 50 50
-1950 1488.99 -1800 0.600664 -0.290528 0.744846 50 50 50
-1900 1473.99 -1850 0.386224 -0.153596 0.909527 50 50 50
-1917.68 1400 -1850 0.484943 -0.0481167 0.873221 50 50 50
-1950 1400 -1819.24 0.671549 -0.0348689 0.740139 50 50 50
-1919.43 1350 -1850 0.514939 -0.0358476 0.856477 50 50 50
-1950 1350 -1827.36 0.576935 -0.0884137 0.811991 50 50 50
-1920.92 1300 -1850 0.46961 -0.0610888 0.880758 50 50 50
-1950 1300 -1833.38 0.491583 -0.101168 0.864934 50 50 50
-1930.64 1250 -1850 0.456535 -0.0407279 0.888773 50 50 50
-1950 1250 -1839.49 0.470215 -0.0511906 0.881066 50 50 50
-1929.43 1200 -1850 0.401825 -0.000417206 0.915716 48 48 48
-1950 1200 -1841.09 0.397355 -0.0293655 0.917195 48 48 48
-1850 1500 -1853.63 0.113596 -0.473694 0.873333 52 52 52
-1800 1500 -1859.62 0.185494 -0.480102 0.857376 54 54 54
-1750 1500 -1876.19 0.391863 -0.374288 0.840447 55 55 55
-1700 1550 -1889.71 0.600033 -0.190789 0.776891 56 56 56
-1700 1500 -1897.9 0.572597 -0.393349 0.719312 56 56 56
-1686.93 1550 -1900 0.646277 -0.174659 0.742846 56 56 56
-1697.37 1500 -1900 0.682709 -0.282019 0.674072 56 56 56
-1900 1450 -1852.86 0.358826 -0.102212 0.927791 51 51 51
-1850 1450 -1862.22 0.149475 -0.100721 0.983622 53 53 53
-1800 1450 -1868.1 0.277433 -0.287289 0.916785 54 54 54
-1750 1450 -1886.02 0.480053 -0.641164 0.598713 55 55 55
-1700 1496.4 -1900 0.650309 -0.506494 0.566182 56 56 56
-1735 1450 -1900 0.528706 -0.746135 0.404662 56 56 56
-1900 1400 -1857.62 0.326654 -0.0582816 0.943345 51 51 51
-1850 1400 -1863.96 0.339762 -0.272557 0.900153 52 52 52
-1800 1404.77 -1900 0.595483 -0.468451 0.652651 54 54 54
-1803.47 1400 -1900 0.72112 -0.539775 0.434314 54 54 54
-1750 1440.63 -1900 0.488446 -0.750491 0.445178 55 55 55
-1900 1350 -1860.08 0.460663 -0.0493016 0.886205 51 51 51
-1850 1352.7 -1900 0.0744866 -0.993853 0.0819024 52 52 52
-1852.24 1350 -1900 0.546966 -0.317795 0.77449 52 52 52
-1839.87 1350 -1900 -0.172488 0.159799 0.971963 53 53 53
-1800 1350 -1894.4 0.431974 0.0660326 0.899466 53 53 53
-1800 1387.51 -1900 0.227812 0.342237 0.911578 53 53 53
-1791.27 1350 -1900 0.60442 0.051661 0.794989 55 55 55
-1900 1300 -1860.2 0.444819 -0.034413 0.894959 50 51 51
-1850 1336.14 -1900 0.133122 0.163104 0.977587 52 52 52
-1850 1300 -1887.72 0.314437 0.0847056 0.945491 52 52 52
-1800 1300 -1897.76 0.491023 -0.454828 0.742986 53 53 53
-1796.62 1300 -1900 0.497498 -0.444903 0.744686 55 55 55
-1900 1250 -1864.09 0.417448 -0.0221602 0.90843 50 50 50
-1850 1250 -1887.65 0.73527 -0.160811 0.65842 51 51 51
-1800 1296.66 -1900 0.484762 -0.486431 0.726905 52 52 52
-1842.6 1250 -1900 0.798988 -0.241142 0.55088 52 52 52
-1900 1200 -1861.97 0.395734 0.0389663 0.917538 50 50 50
-1850 1200 -1885.74 0.759033 0.0253484 0.650558 51 51 51
-1840.65 1200 -1900 0.803087 0.0195032 0.595542 52 52 52
-1650 1550 -1931.91 0.639807 -0.537714 0.5491 56 56 56
-1635.09 1550 -1950 0.723606 -0.472963 0.502693 56 56 56
-1650 1568.5 -1900 0.567647 -0.702557 0.429175 56 56 56
-1613.14 1600 -1900 0.798109 -0.563543 0.213168 56 56 56
-1615.36 1600 -1950 0.928562 -0.325561 0.178277 56 56 56
-1664.91 1500 -1950 0.696426 -0.476149 0.53691 57 57 57
-1650 1526.32 -1950 0.711735 -0.433567 0.552678 57 57 57
-1753.11 1450 -1950 0.368528 -0.922901 0.111539 55 55 55
-1750 1451.11 -1950 0.336647 -0.93061 0.143647 55 55 55
-1750 1450 -1943.88 0.477853 -0.854599 -0.203265 55 55 55
-1700 1478.1 -1950 0.414537 -0.784138 0.461829 56 56 56
-1800 1400 -1905.81 0.73651 -0.491314 0.464933 55 55 55
-1780.81 1400 -1950 0.743868 -0.0871148 0.662625 55 55 55
-1850 1350 -1901.58 0.513028 -0.323189 0.795205 52 52 52
-1765.79 1350 -1950 0.635157 0.128394 0.761637 55 55 55
-1758.45 1300 -1950 0.710092 -0.0557116 0.701901 55 55 55
-1800 1250 -1937.41 0.472914 -0.258969 0.842192 53 53 53
-1769.99 1250 -1950 0.450788 -0.0587264 0.890697 54 54 54
-1800 1200 -1938 0.471715 -0.0103581 0.88169 53 53 53
-1761.97 1200 -1950 0.362263 0.0676092 0.92962 62 61 62
-1610.16 1550 -2000 0.878632 -0.260317 0.400301 56 55 55
-1600 1591.17 -2000 0.883865 -0.218148 0.413755 56 55 55
-1600 1600 -1995.34 0.898458 -0.218069 0.381076 56 55 55
-1650 1500 -1972.28 0.725209 -0.406078 0.556033 56 56 56
-1624.45 1500 -2000 0.722783 -0.374694 0.58068 58 56 54
-1750 1450 -1953.25 0.344546 -0.874949 0.340224 56 56 56
-1700 1450 -1991.3 0.357097 -0.391307 0.848151 56 56 56
-1651.61 1450 -2000 0.295132 -0.452741 0.841381 56 56 56
-1650 1450.84 -2000 0.340225 -0.616734 0.709849 56 56 56
-1750 1400 -1970.09 0.446299 -0.0571037 0.89306 57 57 57
-1700 1400 -1984.71 0.315582 0.0732882 0.946064 57 57 57
-1650 1444.38 -2000 0.179751 0.049676 0.982457 57 57 57
-1650 1400 -1998.06 0.352415 -0.0711761 0.933133 57 57 57
-1644.91 1400 -2000 0.354729 -0.0737002 0.93206 55 55 53
-1750 1350 -1960.43 0.500906 0.114661 0.857873 56 56 56
-1700 1350 -1978.45 0.370145 0.0529361 0.927465 57 57 57
-1650 1384.59 -2000 0.36989 -0.115878 0.921821 57 57 57
-1659.55 1350 -2000 0.466984 -0.0356435 0.883547 57 57 57
-1750 1300 -1958.29 0.631784 -0.042035 0.774004 56 56 56
-1700 1300 -1977.1 0.393709 0.0263988 0.918856 57 57 57
-1653.2 1300 -2000 0.446026 0.0363224 0.894283 56 56 56
-1750 1250 -1959.31 0.392661 0.0244981 0.919357 55 55 55
-1700 1250 -1975.9 0.370068 0.029374 0.92854 55 55 55
-1650 1256.19 -2000 0.154179 0.0349866 0.987423 55 55 55
-1650 1250 -1999.78 0.0984257 0.0409226 0.994303 55 55 55
-1647.51 1250 -2000 0.0876601 0.0418434 0.995271 54 55 52
-1750 1200 -1954.72 0.364852 0.0850168 0.927176 63 63 63
-1700 1200 -1974.17 0.356985 0.0450131 0.933025 63 63 63
-1650 1200 -1994.56 0.238518 0.0863399 0.967292 64 62 63
-1600 1219.84 -2000 0.0596689 0.0916841 0.993999 63 61 62
-1600 1200 -1998.18 0.0629328 0.0947585 0.993509 63 61 62
-400 2031.24 -3050 0.723801 0.0913154 0.68394 62 62 67
-396.059 2000 -3050 0.743863 0.0728005 0.664355 62 62 67
-400 2050 -3052.5 0.731165 0.0915001 0.676037 62 62 67
-356.454 2050 -3100 0.709201 0.0283115 0.704438 62 62 67
-354.208 2000 -3100 0.654078 0.0433694 0.755183 62 62 67
-350 2050 -3106.43 0.694401 0.0302669 0.718952 62 62 67
-350 2100 -3107.92 0.701909 0.018109 0.712036 62 62 67
-357.77 2100 -3100 0.713521 0.0187809 0.700382 62 62 67
-300 2050 -3148 0.752096 0.0507201 0.657099 62 62 65
-300 2100 -3147.9 0.772437 0.000394373 0.635092 62 62 65
-298.306 2100 -3150 0.782891 0.00643579 0.622126 61 60 65
-298.275 2050 -3150 0.759927 0.0490148 0.648158 61 60 65
-350 2000 -3103.53 0.636735 0.0445976 0.769792 63 63 67
-300 2000 -3138.26 0.771976 0.112696 0.625582 62 62 65
-291.586 2000 -3150 0.808168 0.123989 0.575753 62 61 65
-300 2116.38 -3150 0.835243 0.101953 0.540347 62 62 66
-300 2150 -3156.34 0.762077 0.119294 0.636402 62 62 66
-305.41 2150 -3150 0.755219 0.121531 0.644108 62 62 66
-268.893 2150 -3200 0.806677 0.10673 0.581275 61 60 65
-261.966 2100 -3200 0.821777 0.0286625 0.569087 61 60 65
-267.603 2050 -3200 0.830541 0.0544956 0.554284 61 60 64
-251.274 2000 -3200 0.754492 0.246403 0.608298 61 60 63
-1598.17 1200 -2000 0.706075 -0.00611955 0.708111 69 65 62
-1600 1200 -1998.18 0.706238 -0.00610908 0.707948 69 65 62
-1598.61 1150 -2000 0.774374 0.00607339 0.632699 69 65 62
-1600 1150 -1998.3 0.774504 0.00608599 0.63254 69 65 62
-1597.73 1100 -2000 0.807026 0.00682211 0.590476 70 67 62
-1600 1100 -1996.89 0.807133 0.00682876 0.59033 70 67 62
-1597.91 1050 -2000 0.825656 0.00248346 0.564168 70 68 62
-1600 1050 -1996.94 0.825703 0.00249017 0.5641 70 68 62
-1597.58 1000 -2000 0.824069 -0.00155465 0.566487 69 66 59
-1600 1000 -1996.47 0.824162 -0.00154259 0.566352 69 66 59
-1598.08 950 -2000 0.852397 -0.059281 0.519524 67 64 60
-1600 950 -1996.85 0.852461 -0.0590287 0.519447 67 64 60
-1600 929.978 -2000 0.851109 -0.0815008 0.518624 66 64 59
-813.531 2050 -3100 -0.526925 -0.201178 0.825759 146 147 144
-800 2020.76 -3100 -0.486883 -0.225278 0.843917 146 147 144
-800 2050 -3093.45 -0.427068 -0.197602 0.882364 146 147 144
-850 2100 -3148.13 -0.467013 0.00155866 0.884249 171 175 176
-853.9 2100 -3150 -0.424147 0.00369868 0.905586 171 175 176
-850 2050 -3148.04 -0.402968 0.0400306 0.914338 171 175 176
-854.953 2050 -3150 -0.369304 0.039582 0.928465 171 175 176
-819.726 2100 -3100 -0.817208 -0.056272 0.573589 138 140 134
-850 2000 -3143.28 -0.562913 0.0595041 0.824371 177 182 181
-859.891 2000 -3150 -0.554868 0.0548014 0.830131 177 182 181
-800 2000 -3106.2 -0.626271 -0.190041 0.756088 144 144 141
-950 2150 -3185.02 -0.674099 -0.0347404 0.737824 177 180 182
-966.394 2150 -3200 -0.698344 -0.0486782 0.714105 177 180 182
-950 2100 -3187.38 -0.817965 -0.0960211 0.567198 177 180 182
-957.261 2100 -3200 -0.860616 -0.107896 0.497693 177 180 182
-950 2050 -3193.55 -0.750617 -0.0568771 0.658285 187 189 193
-954.654 2050 -3200 -0.810645 -0.0302646 0.584755 187 189 193
-900 2050 -3164.51 -0.384332 -0.0918196 0.918618 205 211 215
-900 2100 -3166.98 -0.360579 0.0459248 0.931597 205 211 215
-1100 2000 -3199.88 0.599683 0.335431 0.726544 239 242 244
-1100 2000.26 -3200 0.598952 0.33567 0.727037 239 242 244
-1150 2000 -3172.41 0.348629 0.686166 0.638462 239 242 244
-1150 2025.6 -3200 0.3482 0.687098 0.637694 239 242 244
-1099.85 2000 -3200 0.600174 0.335277 0.72621 196 201 208
-950 2000 -3195.11 -0.78446 -0.0210332 0.619823 192 197 199
-953.441 2000 -3200 -0.817551 -0.01984 0.575514 192 197 199
-900 2000 -3175.05 -0.435397 -0.0884725 0.895881 209 215 218
1200 405.377 -2000 -0.72785 0.350772 0.589231 99 101 100
1197.41 400 -2000 -0.72785 0.350772 0.589231 99 101 100
1200 400 -1996.8 -0.72785 0.350772 0.589231 99 101 100
70.3329 2200 -3250 -0.946971 -0.0718797 0.313178 67 67 73
90.5152 2150 -3200 -0.937553 -0.0446794 0.344962 67 67 73
85.4648 2200 -3200 -0.952687 -0.096229 0.288318 67 67 73
70.9387 2150 -3250 -0.958125 -0.0876081 0.27262 67 67 73
92.3107 2100 -3200 -0.947329 -0.150672 0.282604 67 69 73
81.6829 2100 -3250 -0.954756 -0.130743 0.26711 67 69 73
100 2068.33 -3200 -0.912775 -0.239146 0.331136 67 69 74
100 2050 -3213.24 -0.923969 -0.165477 0.344817 67 69 74
86.6059 2050 -3250 -0.940886 -0.075748 0.330144 67 69 74
105.009 2050 -3200 -0.917771 -0.188506 0.349515 71 72 78
100 2000 -3216.78 -0.916556 -0.0371596 0.398176 67 68 72
86.9736 2000 -3250 -0.953937 -0.078292 0.28961 67 68 72
107.934 2000 -3200 -0.902741 -0.0528128 0.42693 72 72 77
49.741 2200 -3300 -0.824816 -0.256651 0.503795 62 62 66
50 2199.17 -3300 -0.827062 -0.254846 0.501021 62 62 66
50 2200 -3299.58 -0.825799 -0.256155 0.502435 62 62 66
59.503 2150 -3300 -0.924552 -0.122869 0.360704 67 69 72
61.7904 2100 -3300 -0.938326 -0.102241 0.33029 67 69 73
68.6486 2050 -3300 -0.953978 -0.194591 0.228167 67 68 72
86.8885 2000 -3300 -0.948412 -0.273305 0.160686 67 69 71
16.541 2250 -3350 -0.862561 -0.112577 0.49327 62 62 66
45.7307 2250 -3300 -0.861541 -0.0691008 0.502963 62 62 66
24.1375 2200 -3350 -0.862332 -0.110515 0.494135 62 62 66
50 2150 -3321.78 -0.867229 -0.155685 0.472944 61 62 66
29.4727 2150 -3350 -0.82136 -0.129611 0.55549 61 62 66
50 2100 -3333.17 -0.834826 -0.257436 0.486614 61 62 65
37.7541 2100 -3350 -0.569698 -0.159831 0.806163 61 62 65
50 2077.51 -3350 -0.806825 -0.325841 0.492808 61 62 66
58.2539 2050 -3350 -0.862293 -0.151134 0.483332 68 69 71
57.5293 2000 -3350 -0.813164 0.0117849 0.581915 68 69 71
0 2250 -3378.99 -0.867826 -0.10347 0.485975 62 62 66
9.53791 2300 -3350 -0.891907 -0.0871302 0.443746 62 62 66
0 2300 -3369.99 -0.899834 -0.0772638 0.429336 62 62 66
0 2200 -3388.71 -0.848108 -0.0986987 0.520548 62 63 65
0 2150 -3396.49 -0.844048 -0.0597304 0.532931 61 62 66
0 2100 -3399.74 -0.737175 -0.203847 0.64422 61 62 65
0 2099.19 -3400 -0.733662 -0.204932 0.647876 61 62 64
11.2423 2050 -3400 -0.591857 0.118035 0.797354 61 62 64
50 2050 -3363.4 -0.814333 -0.128008 0.566105 61 62 64
0 2025.76 -3400 -0.559155 0.259279 0.787477 61 62 64
0 2000 -3391.53 -0.591228 0.205089 0.779992 61 62 64
50 2000 -3360.1 -0.76557 0.020911 0.643012 61 62 64
0 2050 -3407.99 -0.574524 0.128223 0.808382 61 62 64
-1950.32 800 -1850 0.529674 0.0929512 0.843093 47 48 48
-2000 800 -1815.02 0.528672 0.0746133 0.845541 47 48 48
-1950 798.163 -1850 0.520086 0.0951631 0.848796 47 48 48
-1950 750 -1841.82 0.42976 0.0951881 0.897912 47 48 48
-2000 750 -1813.32 0.479792 0.0590045 0.875396 47 48 48
-1929.86 750 -1850 0.386521 0.0774813 0.91902 48 48 48
-1950 700 -1834.75 0.554963 0.00115189 0.831874 48 48 48
-2000 700 -1810.01 0.447317 -0.0106801 0.894312 48 48 48
-1929.26 700 -1850 0.556271 -0.041875 0.829945 48 48 48
-1950 650 -1840 0.634108 0.00904567 0.773191 47 47 47
-2000 650 -1814.26 0.447184 0.0322717 0.89386 47 47 47
-1938.93 650 -1850 0.638184 -0.00692886 0.769852 48 48 48
-1950 600 -1831.13 0.647486 0.0470325 0.760625 47 47 47
-2000 600 -1807.91 0.500978 0.0966416 0.860047 47 47 47
-1933.29 600 -1850 0.687249 0.0464878 0.724933 47 47 47
-2000 568.48 -1800 0.683098 0.177834 0.708345 47 47 47
-1995.19 550 -1800 0.641761 0.0994699 0.760426 47 47 47
-1950 550 -1836.47 0.593195 -0.0207116 0.804792 47 47 47
-1932.34 550 -1850 0.60214 0.00143667 0.798389 47 47 47
-1997.88 500 -1800 0.615402 0.00968238 0.788154 46 46 46
-1950 500 -1836.88 0.563215 0.0137612 0.826196 46 46 46
-1929.75 500 -1850 0.558337 0.0226669 0.829304 46 46 46
-1994.5 450 -1800 0.616817 0.0241059 0.786737 45 45 45
-1950 450 -1835.14 0.559294 0.0402575 0.827991 45 45 45
-1926.4 450 -1850 0.555521 0.0460615 0.830226 45 45 45
-1993.48 400 -1800 0.604326 0.0339743 0.796012 45 45 45
-1950 400 -1831.44 0.556694 0.0612463 0.828457 45 45 45
-1921.02 400 -1850 0.577397 0.0517884 0.814819 45 45 45
-1950 800 -1850.2 0.528694 0.0929724 0.843705 48 48 48
-1900 750 -1863.25 0.491759 0.0744726 0.867541 48 49 49
-1900 800 -1876.54 0.517524 0.193654 0.833467 48 49 49
-1863.39 800 -1900 0.472186 0.108466 0.8748 49 49 49
-1851.9 750 -1900 0.423088 0.060321 0.904078 49 49 49
-1900 700 -1869.63 0.513128 -0.0859409 0.853998 48 49 49
-1850 730.506 -1900 0.608268 0.0586669 0.79156 49 49 49
-1850 700 -1898.32 0.31576 0.0742577 0.945929 49 49 49
-1844.55 700 -1900 0.338029 0.147698 0.929474 50 50 50
-1900 650 -1875.04 0.442721 -0.0297243 0.896167 48 48 48
-1850 650 -1892.04 0.315676 0.0784248 0.945621 49 49 49
-1823.25 650 -1900 0.36155 0.106917 0.926202 49 49 49
-1900 600 -1875.04 0.449228 0.0210132 0.89317 48 48 48
-1850 600 -1888.13 0.27418 0.062673 0.959634 49 49 49
-1810.4 600 -1900 0.627202 0.146383 0.764977 49 49 49
-1900 550 -1871.8 0.437313 0.041928 0.898332 48 48 48
-1850 550 -1885.43 0.25173 0.0465101 0.966679 48 48 48
-1800 570.82 -1900 0.649782 0.134374 0.748149 48 48 48
-1800 550 -1897.99 0.731997 0.00139993 0.681307 48 48 48
-1798.19 550 -1900 0.750526 0.00159643 0.660839 50 50 50
-1900 500 -1870.89 0.448258 0.0246049 0.893565 47 47 47
-1850 500 -1883.46 0.304722 -0.00457642 0.95243 48 48 48
-1800 529.021 -1900 0.724067 -0.112954 0.680418 48 48 48
-1807.44 500 -1900 0.670482 -0.143704 0.727876 48 48 48
-1900 450 -1868.91 0.473197 0.0417266 0.879968 47 47 47
-1850 450 -1882.76 0.370801 0.00987454 0.92866 47 47 47
-1814.82 450 -1900 0.660885 -0.064266 0.747731 48 48 48
-1900 400 -1866.43 0.514378 0.0424722 0.856511 46 46 46
-1850 400 -1881.83 0.405515 0.0230502 0.913798 47 47 47
-1817.74 400 -1900 0.635607 -0.00319691 0.772006 48 48 48
-1850 750 -1900.87 0.425683 0.0585834 0.902974 50 50 50
-1850 800 -1906.79 0.487345 0.101255 0.867319 50 50 50
-1800 790.191 -1950 0.471635 -0.0454419 0.880622 51 51 51
-1800 800 -1949.18 0.618392 -0.0650549 0.783173 51 51 51
-1801.31 750 -1950 0.69392 0.283338 0.661963 51 51 51
-1798.96 800 -1950 0.610623 -0.0646853 0.789275 52 52 52
-1800 700 -1917.25 0.590492 0.262724 0.763083 51 51 51
-1800 747.075 -1950 0.680615 0.309142 0.664224 51 51 51
-1773.24 700 -1950 0.672768 0.166178 0.720949 52 52 52
-1800 650 -1911.3 0.617385 0.0642357 0.784034 51 51 51
-1773.76 650 -1950 0.697488 -0.0544745 0.714523 51 51 51
-1800 600 -1911.7 0.788975 0.134155 0.599601 51 51 51
-1782.51 600 -1950 0.7085 -0.00929836 0.705649 51 51 51
-1783.96 550 -1950 0.682792 0.0920367 0.724793 50 50 50
-1800 500 -1907.9 0.734359 -0.149466 0.6621 49 49 49
-1770.53 500 -1950 0.640839 0.0612577 0.765227 50 50 50
-1800 450 -1919.02 0.743638 -0.069165 0.664995 49 49 49
-1767.88 450 -1950 0.449761 0.0720327 0.890239 49 49 49
-1800 400 -1918.74 0.679323 0.00403462 0.733828 49 49 49
-1754.89 400 -1950 0.346125 0.082343 0.934568 49 49 49
-1800 750 -1951.38 0.692642 0.283757 0.66312 52 52 52
-1750 800 -1966.07 0.232107 -0.0083075 0.972655 55 57 56
-1750 750 -1965.49 0.222007 -0.0116945 0.974975 55 57 56
-1700 750 -1974.91 0.0692597 -0.0021594 0.997596 56 56 56
-1700 800 -1973.78 0.0716352 -0.0116262 0.997363 56 56 56
-1650 750 -1973.4 0.265445 0.0184324 0.96395 55 55 55
-1650 800 -1974.42 0.288925 0.0227425 0.957081 55 55 55
-1610.07 800 -2000 0.539241 0.0293831 0.841639 55 55 54
-1607.35 750 -2000 0.531502 0.0212447 0.846791 55 55 54
-1750 700 -1967.91 0.397461 0.0434543 0.91659 54 56 55
-1700 700 -1974.78 0.0441662 0.00765591 0.998995 55 55 55
-1650 700 -1971.83 0.256755 0.0165484 0.966335 55 55 55
-1605.51 700 -2000 0.533503 -0.00864834 0.845754 54 54 54
-1750 650 -1968.23 0.414686 -0.0134058 0.909866 51 51 51
-1700 650 -1973.56 0.0250227 0.0328193 0.999148 55 55 55
-1650 650 -1970.45 0.273145 0.0413039 0.961086 54 54 54
-1609.26 650 -2000 0.573491 0.0275 0.81875 53 53 51
-1750 600 -1966.14 0.295473 0.0357625 0.954681 51 51 51
-1700 600 -1971.19 0.0219885 0.0456383 0.998716 52 53 53
-1650 600 -1967.77 0.259489 0.0232277 0.965467 52 52 52
-1603.59 600 -2000 0.57483 -0.00325514 0.818266 51 51 51
-1750 550 -1963.07 0.263018 0.0683255 0.962369 50 50 50
-1700 550 -1968.4 0.0394767 0.0571318 0.997586 51 52 51
-1650 550 -1967.05 0.297131 0.0424521 0.953893 51 51 51
-1608.92 550 -2000 0.610392 0.0258312 0.791678 50 50 50
-1750 500 -1959.89 0.32932 0.0543374 0.942654 50 50 50
-1700 500 -1965.47 0.0470455 0.0760076 0.995997 49 50 50
-1650 500 -1964.39 0.268663 0.0784018 0.960038 49 49 49
-1602.32 500 -2000 0.602462 0.0575592 0.79607 49 49 48
-1750 450 -1955.98 0.25631 0.0793028 0.963336 49 49 49
-1700 450 -1960.5 0.0480647 0.0901894 0.994764 48 50 50
-1650 450 -1960.69 0.228825 0.080002 0.970174 49 49 49
-1600 474.337 -2000 0.637263 0.214331 0.740242 48 48 47
-1600 450 -1986.65 0.563774 0.19421 0.802771 48 48 47
-1750 400 -1951.67 0.301014 0.0820122 0.950087 48 48 48
-1700 400 -1956.26 0.0420836 0.0847936 0.995509 48 50 49
-1650 400 -1955.94 0.238042 0.089044 0.967164 47 47 47
-1600 400 -1984.73 0.476897 0.0549796 0.877238 48 48 47
-1000 1550 -2992.98 0.48428 0.5708 0.663069 168 170 165
-990.386 1550 -3000 0.48428 0.5708 0.663069 168 170 165
-1000 1558.16 -3000 0.48428 0.5708 0.663069 168 170 165
-950 1550 -3036.14 0.518206 0.609283 0.600197 176 177 171
-933.949 1550 -3050 0.518206 0.609283 0.600197 176 177 171
-950 1563.65 -3050 0.518206 0.609283 0.600197 176 177 171
-850 1200 -3043.64 0.904743 0.131146 0.405267 212 217 215
-847.151 1200 -3050 0.898306 0.130712 0.419478 212 217 215
-850 1219.65 -3050 0.895161 0.129757 0.426438 212 217 215
-891.241 1500 -3050 0.914789 0.109839 -0.38871 225 228 229
-900 1500 -3070.61 0.919455 0.0442815 -0.390693 225 228 229
-900 1511.01 -3050 0.742642 0.59068 -0.315562 225 228 229
-800 1530.3 -3100 -0.453707 0.273415 0.848171 190 192 184
-827.716 1500 -3100 -0.492717 0.247938 0.83412 190 192 184
-800 1500 -3091.05 -0.303382 0.159825 0.93937 190 192 184
-900 1485.79 -3050 0.8005 -0.493457 -0.340147 253 254 254
-800 1450 -3092.05 -0.243148 0.0388136 0.969212 188 193 186
-833.286 1450 -3100 -0.462309 0.0967219 0.881428 188 193 186
-900 1421.91 -3050 0.59704 0.72245 0.348723 244 249 250
-873.492 1400 -3050 0.620306 0.71274 0.327448 244 249 250
-900 1446.04 -3100 0.525598 0.5682 0.633164 244 249 250
-850.522 1400 -3100 0.610962 0.636153 0.471206 244 249 250
-800 1400 -3088.66 -0.195683 0.0454997 0.979611 189 194 189
-849.051 1400 -3100 -0.574646 0.0723963 0.815194 189 194 189
-850 1389.19 -3100 -0.633754 0.0556149 0.771533 194 199 195
-850 1350 -3095.76 0.0124984 0.100068 0.994902 194 199 195
-800 1350 -3091.11 -0.0921347 -0.0983984 0.990873 194 199 195
-800 1300 -3098.64 0.441141 0.0815287 0.893727 197 202 199
-850 1300 -3059.98 0.59462 0.234306 0.769108 197 202 199
-800 1269.55 -3100 0.407337 -0.0392858 0.912432 205 209 207
-801.885 1250 -3100 0.404831 -0.022971 0.914103 205 209 207
-850 1250 -3058.35 0.669443 0.0858505 0.737886 205 209 207
-800.095 1200 -3100 0.461885 0.0137207 0.886833 213 217 214
-900 1600 -3106.04 0.204631 -0.00220049 0.978837 195 197 188
-850 1550 -3116.61 -0.0581507 -0.0184629 0.998137 195 197 188
-850 1600 -3127.85 0.0538051 0.181683 0.981884 195 197 188
-900 1550 -3116.08 0.0628102 -0.11918 0.990884 195 197 188
-800 1550 -3104.63 -0.404005 0.119453 0.906924 174 176 166
-800 1600 -3107.55 -0.375726 0.0540411 0.925154 174 176 166
-850 1500 -3123.92 -0.330439 0.177978 0.926895 212 218 215
-900 1500 -3112.93 0.205518 0.131934 0.969719 212 218 215
-850 1450 -3112.72 -0.407257 0.171853 0.897 228 234 236
-900 1450 -3103.29 0.45518 0.49048 0.743129 228 234 236
-850 1400 -3100.67 -0.466392 0.169546 0.868178 215 225 225
-800 1250 -3100.82 0.399475 -0.0236623 0.916439 194 196 193
-800 1200 -3100.05 0.461435 0.0137002 0.887068 201 202 200
-600 1757.23 -2900 0.238443 0.185279 0.953319 86 83 74
-615.191 1750 -2900 -0.0768428 0.142323 0.986833 86 83 74
-600 1750 -2898.58 0.527237 0.158725 0.834762 86 83 74
-598.145 1750 -2900 0.599771 0.148805 0.786213 68 64 59
-650 1729.12 -2900 -0.282245 0.0867458 0.955412 246 246 243
-655.352 1700 -2900 -0.497242 0.0913897 0.862785 246 246 243
-650 1700 -2897 -0.435014 0.0827359 0.896615 246 246 243
-600 1700 -2887.42 0.564882 0.00577826 0.825152 87 81 70
-588.709 1700 -2900 0.701978 -0.0051085 0.71218 68 65 59
-600 1650 -2898.14 0.633162 -0.00101161 0.774018 91 85 69
-650 1650 -2897.96 -0.151512 -0.0522892 0.987071 91 85 69
-597.903 1650 -2900 0.656485 0.000737254 0.754339 70 66 59
-627.275 1600 -2900 -0.272613 -0.175859 0.945915 99 91 74
-600 1600 -2890.04 0.346012 0.068149 0.935752 99 91 74
-650 1635.23 -2900 -0.272058 -0.143584 0.951508 99 91 74
-585.966 1600 -2900 0.539849 0.122458 0.832807 73 68 60
-700 1950 -2926.38 -0.594167 0.0752575 0.800813 147 148 143
-716.357 1950 -2950 -0.830829 -0.00161255 0.556526 147 148 143
-700 1900 -2922.37 -0.65919 0.0261277 0.751523 147 148 143
-714.348 1900 -2950 -0.866643 -0.0268542 0.498206 147 148 143
-650 1900 -2918.95 0.0112013 0.166835 0.985921 90 87 81
-650 1950 -2925.71 0.0287169 0.130073 0.991088 90 87 81
-600 1900 -2922.9 0.120952 0.158653 0.979898 77 73 65
-600 1950 -2928.86 0.0792945 0.0919372 0.992603 77 73 65
-550 1900 -2930.38 0.475537 0.0633495 0.877412 66 61 58
-550 1950 -2931.08 0.451802 0.014335 0.892003 66 61 58
-528.072 1950 -2950 0.736134 0.0225378 0.67646 62 59 55
-526.979 1900 -2950 0.678221 0.0588043 0.732502 62 59 55
-700 1850 -2924.04 -0.735085 -0.0269957 0.677437 152 154 151
-713.029 1850 -2950 -0.839012 -0.0108979 0.544004 152 154 151
-650 1850 -2908.16 -0.0116971 0.121169 0.992563 102 101 94
-600 1850 -2911.67 0.1651 0.121794 0.978728 82 77 69
-550 1850 -2923.7 0.509197 0.0399974 0.85972 65 61 59
-522.902 1850 -2950 0.704943 0.00347907 0.709255 65 61 58
-600 1800 -2908.79 0.209285 0.0883942 0.973851 85 79 72
-650 1800 -2905.28 0.0699192 0.065888 0.995374 85 79 72
-550 1800 -2926.8 0.544596 0.00801958 0.83866 66 63 59
-526.36 1800 -2950 0.675829 0.0586602 0.734721 69 64 61
-650 1750 -2901.54 -0.1658 0.0639869 0.984081 88 83 74
-550 1750 -2927.64 0.521735 0.0114443 0.853031 69 65 60
-515.99 1750 -2950 0.591269 0.0481807 0.805034 69 66 61
-700 1750 -2921.26 -0.805798 -0.134107 0.576805 162 162 160
-709.248 1750 -2950 -0.94992 -0.0715508 0.304192 162 162 160
-700 1700 -2932.88 -0.889992 -0.0747722 0.449804 162 162 160
-705.362 1700 -2950 -0.898348 -0.0752531 0.432791 162 162 160
-550 1700 -2929.34 0.535602 0.0320153 0.843863 67 64 58
-517.664 1700 -2950 0.520016 0.133266 0.843696 70 68 63
-550 1650 -2924.56 0.420723 0.094614 0.902242 69 63 57
-500 1663.57 -2950 0.710528 0.218519 0.668879 70 69 65
-500 1650 -2945.35 0.805361 0.103425 0.583693 70 69 65
-496.837 1650 -2950 0.820789 0.0982519 0.562718 64 63 60
-650 1600 -2905.2 -0.220672 -0.142352 0.964904 97 90 75
-550 1600 -2919.03 0.46598 0.0573131 0.882937 69 64 56
-500 1620.44 -2950 0.740459 -0.100829 0.664495 72 71 66
-503.863 1600 -2950 0.617607 -0.117262 0.777696 72 71 66
-500 1950 -2990.71 0.654372 0.0677546 0.753131 62 58 54
-500 2000 -2987.21 0.639276 -0.0362946 0.768121 62 58 54
-536.348 2000 -2950 0.710377 0.117576 0.693931 62 58 54
-481.341 2000 -3000 0.531739 -0.0683219 0.844148 60 55 54
-487.766 1950 -3000 0.56515 0.0751789 0.821555 60 55 54
-752.536 1950 -3000 -0.892783 -0.0546863 0.447155 139 142 137
-750 1908.59 -3000 -0.804756 -0.0692632 0.589551 139 142 137
-750 1950 -2994.94 -0.885298 -0.0564509 0.461584 139 142 137
-749.255 1900 -3000 -0.750806 0.0935632 0.653863 159 160 159
-500 1900 -2975.53 0.646366 0.129461 0.751965 63 59 55
-467.857 1900 -3000 0.536518 0.105556 0.837261 56 54 51
-750 1894.13 -3000 -0.812227 0.0840605 0.577253 144 146 142
-753.95 1850 -3000 -0.837346 0.0464914 0.544693 144 146 142
-750 1850 -2994.16 -0.821248 0.0444858 0.568834 144 146 142
-500 1850 -2974.07 0.655955 0.0225827 0.754462 67 62 59
-464.72 1850 -3000 0.541691 0.0765429 0.837085 53 50 47
-750 1800 -2993.25 -0.70941 0.0333992 0.704004 148 151 148
-756.926 1800 -3000 -0.739785 0.0428045 0.671481 148 151 148
-710.328 1800 -2950 -0.736316 -0.0397666 0.675468 170 171 166
-500 1800 -2971.85 0.592309 0.0845373 0.801264 69 66 61
-453.021 1800 -3000 0.587076 0.0967986 0.803724 50 47 45
-500 1750 -2961.84 0.584433 0.0769134 0.807788 70 66 63
-450 1780.85 -3000 0.53583 0.0857867 0.839956 50 49 47
-450 1750 -2997.1 0.489877 -0.140446 0.860404 50 49 47
-444.788 1750 -3000 0.497836 -0.145597 0.854962 59 59 59
-500 1700 -2960.48 0.550557 0.128949 0.824778 69 67 62
-450 1739.12 -3000 0.568894 -0.243744 0.785461 51 50 48
-460.91 1700 -3000 0.797113 -0.127986 0.59011 51 50 48
-750 1700 -2983.84 -0.671379 -0.0663531 0.738138 164 167 160
-766.538 1700 -3000 -0.819024 -0.082754 0.56776 164 167 160
-750 1650 -2988.37 -0.698398 -0.0769373 0.711562 164 167 160
-761.01 1650 -3000 -0.844605 -0.104516 0.52509 164 167 160
-700 1650 -2950.24 -0.83777 -0.0286309 0.545272 185 186 183
-700 1650.72 -2950 -0.826402 -0.178007 0.534203 185 186 183
-699.845 1650 -2950 -0.837596 -0.0300044 0.545466 114 110 88
-463.627 1650 -3000 0.815922 -0.0362014 0.577027 52 50 48
-700 1649.14 -2950 -0.828622 0.148972 0.539622 126 119 94
-500 1600 -2953.08 0.635632 -0.115208 0.763347 72 70 65
-465.63 1600 -3000 0.833228 -0.0592249 0.549749 54 52 50
-450 1950 -3019.26 0.469296 0.0714037 0.880149 62 59 56
-450 2000 -3017.15 0.481569 -0.043342 0.875336 62 59 56
-400 1950 -3047.7 0.496369 0.0873144 0.863709 62 61 63
-400 2000 -3046.6 0.507425 -0.0188535 0.86149 62 61 63
-450 1900 -3010.71 0.498569 0.0852563 0.862647 60 58 55
-400 1900 -3035.84 0.460411 0.0823508 0.883878 61 61 62
-750 1900 -3000.85 -0.75412 0.0944512 0.649909 140 143 139
-772.488 1900 -3050 -0.912339 0.0643863 0.404341 140 143 139
-775.362 1850 -3050 -0.927741 0.0456783 0.370418 140 143 139
-450 1850 -3009.04 0.516634 0.0724833 0.853133 59 57 54
-400 1850 -3037.07 0.477566 0.0381938 0.877765 60 61 62
-777.418 1800 -3050 -0.94211 0.0130143 0.335051 143 146 143
-450 1800 -3002.23 0.590604 0.0964865 0.801172 58 56 54
-400 1800 -3032.69 0.511109 -0.0109343 0.859446 61 61 62
-400 1750 -3039.88 0.600508 -0.355525 0.716234 61 61 61
-450 1700 -3015.66 0.787457 -0.132573 0.601944 54 52 50
-420.149 1700 -3050 0.64059 -0.109831 0.759988 61 62 62
-400 1735.46 -3050 0.596316 -0.398933 0.696606 61 62 62
-776.07 1700 -3050 -0.974234 -0.0841937 0.209236 158 160 154
-772.918 1650 -3050 -0.952543 -0.0410673 0.301623 158 160 154
-450 1650 -3018.76 0.763651 -0.064072 0.642442 53 51 49
-408.812 1650 -3050 0.685636 -0.0880396 0.722601 62 62 62
-751.357 1600 -3000 -0.94397 -0.089346 0.317708 161 163 155
-773.893 1600 -3050 -0.921689 0.0277401 0.386936 161 163 155
-450 1600 -3025.19 0.812947 -0.0742733 0.577581 51 50 48
-429.724 1600 -3050 0.699175 -0.20009 0.686381 61 61 60
-793.027 1850 -3100 -0.947484 0.0231735 0.318964 145 146 142
-793.51 1800 -3100 -0.947387 0.00820437 0.319985 145 146 142
-776.202 1750 -3050 -0.943778 0.00387197 0.330557 148 150 145
-795.342 1750 -3100 -0.933366 0.0342105 0.357292 148 150 145
-400 1700 -3064.77 0.592485 -0.123533 0.796054 62 62 62
-400 1650 -3058.74 0.701519 -0.0903083 0.706906 62 62 62
-791.404 1650 -3100 -0.929767 0.0403146 0.365934 159 160 154
-794.626 1600 -3100 -0.9221 0.0594266 0.382361 159 160 154
-400 1600 -3079.78 0.678473 -0.285002 0.677088 63 63 61
-1100.97 -0 -3200 0.621894 -0.424426 0.658112 170 172 183
-1100 -0 -3200.92 0.4763 -0.476555 0.738941 170 172 183
-1100 1.4268 -3200 0.408436 -0.494713 0.767098 170 172 183
-1095.07 -0 -3200 -0.154993 -0.535431 0.830235 176 179 190
-320.347 1150 -3200 0.802741 -0.015647 0.596122 64 64 67
-300 1150 -3227.38 0.754695 -0.0368759 0.655038 64 64 67
-300 1200 -3222.57 0.774573 -0.0448118 0.630895 64 64 67
-316.687 1200 -3200 0.802658 -0.058761 0.593538 64 64 67
-276.043 1200 -3250 0.746204 -0.00580194 0.665691 62 62 64
-276.432 1150 -3250 0.695618 -0.0311257 0.717738 62 62 64
-318.669 1100 -3200 0.82055 -0.0477138 0.56958 64 64 66
-300 1100 -3227.24 0.792621 -0.0722818 0.605415 64 64 66
-280.364 1100 -3250 0.744042 -0.114384 0.658269 62 62 65
-325.115 1050 -3200 0.839853 -0.100942 0.533346 64 65 67
-300 1050 -3240.3 0.793202 -0.112715 0.598436 64 65 67
-292.342 1050 -3250 0.773054 -0.115579 0.623722 62 62 65
-329.57 1000 -3200 0.845013 -0.0522117 0.53219 64 66 67
-300 1000 -3246.78 0.729227 -0.0630336 0.681363 64 66 67
-296.897 1000 -3250 0.720861 -0.0633852 0.690175 63 62 66
-331.44 950 -3200 0.865584 -0.0524999 0.498004 66 66 68
-300 950 -3249.5 0.754229 -0.227297 0.616015 66 66 68
-299.594 950 -3250 0.752944 -0.227667 0.617449 64 64 67
-309.537 900 -3250 0.882887 -0.0215937 0.469088 65 65 67
-300 948.688 -3250 0.753335 -0.231066 0.615707 65 65 67
-331.517 900 -3200 0.915218 -0.0226354 0.402324 65 65 67
-333.916 850 -3200 0.865839 0.0229351 0.499797 65 66 68
-302.072 850 -3250 0.846402 0.0655149 0.528499 65 66 68
-333.002 800 -3200 0.849538 0.0019985 0.527524 66 66 68
-303.036 800 -3250 0.863305 -0.0188837 0.504329 66 66 68
-250 1150 -3274.35 0.713445 -0.0340982 0.699881 61 61 65
-250 1200 -3278.54 0.690554 0.0085613 0.72323 61 61 65
-224.007 1200 -3300 0.636275 -0.0258246 0.77103 59 59 61
-226.036 1150 -3300 0.728642 -0.0992706 0.677662 59 59 61
-250 1100 -3286.47 0.732071 -0.150879 0.66431 62 62 65
-237.468 1100 -3300 0.719601 -0.139621 0.680206 61 60 63
-250 1050 -3297.53 0.592444 -0.104467 0.79881 62 62 65
-246.579 1050 -3300 0.589739 -0.103873 0.800886 60 59 62
-250 1000 -3299.58 0.710223 -0.102979 0.696404 63 63 66
-249.588 1000 -3300 0.71 -0.103005 0.696628 61 60 63
-256.16 950 -3300 0.747816 -0.0964137 0.656868 63 63 66
-250 997.268 -3300 0.710139 -0.106453 0.695967 63 63 66
-300 900 -3268.13 0.831808 -0.0360716 0.553891 64 65 67
-262.71 900 -3300 0.672089 -0.0322206 0.739769 63 63 66
-300 850 -3253.31 0.842604 0.0653403 0.534556 64 66 68
-260.654 850 -3300 0.750721 -0.0692371 0.656981 63 63 66
-300 800 -3255.21 0.861674 -0.0193057 0.507094 64 66 68
-271.094 800 -3300 0.801996 -0.15668 0.576415 63 62 65
-200 1150 -3331.74 0.657915 -0.140204 0.739926 59 59 61
-200 1200 -3319.8 0.647145 -0.109894 0.754405 59 59 61
-159.606 1200 -3350 0.61311 -0.182523 0.768623 58 57 60
-174.491 1150 -3350 0.59859 -0.147478 0.787363 58 57 60
-200 1100 -3335.53 0.665448 -0.0392651 0.745411 60 60 62
-183.799 1100 -3350 0.655678 -0.0462146 0.753625 58 58 60
-200 1050 -3336.62 0.631926 -0.115952 0.766306 61 60 63
-184.02 1050 -3350 0.632044 -0.104456 0.76786 58 58 60
-200.827 1000 -3350 0.696695 -0.182558 0.69375 61 60 63
-200 1003.03 -3350 0.688009 -0.192167 0.699796 61 60 63
-250 950 -3307.03 0.739823 -0.0957361 0.665956 63 64 66
-205.591 950 -3350 0.700185 -0.0743377 0.710081 62 61 64
-250 900 -3311.4 0.681164 -0.0254613 0.731688 63 63 66
-211.34 900 -3350 0.690865 -0.0510412 0.72118 62 61 63
-250 850 -3312.55 0.751873 -0.0988121 0.651861 62 63 65
